3173,3190,3190,3223,3240,3257,3292,3328,3364,3401,3439,3498,3538,3579,3621,3686,3754,3800,3872,3921,3972,4024,4077,4104,4132,4160,4160,4188,4217,4246,4275,4305,4336,4397,4461,4494,4560,4629,4700,4810,4848,4925,4925,4925,4886,4886,4848,4810,4772,4736,4700,4664,4629,4664,4664,4629,4664,4629,4629,4664,4664,4664,4700,4736,4772,4810,4848,4848,4886,4886,4925,4925,4886,4886,4886,4886,4925,4925,4925,4925,4925,4925,4925,4886,4810,4736,4664,4629,4594,4560,4527,4494,4494,4494,4527,4560,4594,4629,4736,4848,5005,5130,5307,5497,5700,5920,6095,6282,6347,6413,6413,6282,6219,6095,5920,5754,5648,5497,5353,5262,5217,5173,5130,5130,5088,5088,5046,5088,5088,5046,5046,4965,4965,4925,4925,4886,4848,4772,4700,4594,4560,4494,4275,4077,3872,3686,3459,3383,3292,3223,3141,3125,3109,3094,3094,3094,3078,3094,3125,3190,3223,3275,3292,3328,3346,3383,3439,3498,3600,3709,3848,0,0,0,0,0,0,0,0,0,0,0,0,0,0,0,0,0,0,0,0,0,0,0,0,0,0,0,0,0,0,0,0,2472,2472,2472,2472,2463,2453,2453,2443,2443,2443,2433,2433,2433,2443,2443,2453,2453,2453,2463,2463,2463,2463,2463,2472,2472,2482,2482,2492,2523,2631,2677,2654,2773,2824,2850,2877,2890,2877,2850,2850,2824,2798,2761,2736,2724,2700,2665,2654,2631,2631,2642,2654,2665,2665,2654,2642,2642,2642,2631,2631,2631,2631,2631,2642,2654,2665,2677,2688,2688,2700,2712,2712,2712,2700,2700,2700,2688,2677,2665,2654,2654,2654,2654,2654,2654,2654,2665,2677,2677,2700,2724,2736,2761,2761,2773,2786,2798,2824,2850,2890,2946,3003,0,3257,3439,3579,3709,3731,3731,3731,3709,3709,3686,3686,3665,3686,3665,3665,3686,3665,3643,3621,3559,3538,3498,3478,3478,3478,3439,3439,3420,3439,3439,0,3420,3401,3346,3328,3328,3328,3292,3292,3257,3257,3223,3206,3173,3157,3141,3125,3094,3078,3048,3033,3033,3018,3003,2946,2932,2918,2890,2786,0,0,0,0,0,1701,1696,1696,1696,1691,1691,1691,1687,1682,1682,1678,1668,1651,1637,1616,1599,1587,1571,1555,1543,1528,1516,1509,1502,1494,1491,1483,1480,1476,1473,1473,1469,1469,1476,1480,1487,1487,1494,1498,1502,1505,1509,1509,1505,1509,1509,1513,1516,1520,1520,1524,1528,1528,1531,1535,1539,1543,1551,1563,1575,1591,1612,1637,1659,1668,1682,1754,1849,0,0,2094,2175,2272,2280,2280,2289,2289,2297,2297,2306,2306,2314,2323,2332,2341,2350,2359,2368,2386,2395,2405,2414,2414,2414,2405,2405,2386,2386,2368,2368,2359,2359,2350,2350,2341,2341,2332,2323,2323,2314,2314,2306,2306,2297,2289,2289,2280,2280,2272,2255,2247,2247,2239,2231,2223,2215,2207,2199,2191,2183,2175,2175,2168,2168,2168,2160,2153,2153,2145,2138,2123,2116,2116,2101,2094,2087,2080,2073,2073,2080,2080,2080,2080,0,0,0,0,1142,1142,1140,1140,1142,1142,1142,1142,1144,1144,1144,0,0,0,0,0,0,0,1888,1894,1906,1912,1924,1942,1954,1967,1980,1986,1992,1999,1999,1999,1999,1999,1999,2005,2005,2012,2019,2025,2032,2039,2045,2052,2052,2052,2052,2052,2052,2045,2039,2032,2019,2005,1992,1992,1986,1986,1986,1986,1992,1999,2019,2032,2039,2032,2025,2019,2012,2005,2005,1999,1992,1986,1986,1986,1980,1986,1986,1986,1986,1992,1992,1992,1999,1999,1999,1999,1999,1999,1999,1992,1992,0,0,0,0,0,0,0,0,0,0,0,0,0,0,0,0,0,0,0,0
3173,3190,3190,3206,3223,3257,3275,3310,3346,3383,3420,3459,3518,3559,3600,3665,3731,3800,3848,3921,3972,4024,4077,4104,4132,4160,4160,4160,4188,4217,4217,4246,4275,4336,4397,4429,4494,4560,4664,4736,4810,4886,4925,4925,4925,4925,4886,4848,4810,4772,4736,4700,4664,4664,4664,4664,4629,4664,4664,4664,4700,4700,4736,4772,4810,4848,4886,4925,4965,4965,4965,4965,4965,4965,4965,4965,4965,5005,5005,5005,5005,5005,5005,4965,4886,4772,4736,4664,4629,4594,4560,4494,4494,4494,4494,4494,4527,4594,4664,4772,4925,5088,5262,5448,5648,5863,6036,6219,6282,6347,6347,6282,6219,6095,5920,5808,5648,5546,5400,5307,5262,5217,5173,5173,5130,5130,5130,5088,5130,5088,5046,5046,5005,5005,4965,4925,4886,4810,4736,4629,4560,4461,4275,4077,3896,3709,3538,3420,3346,3275,3190,3157,3141,3109,3109,3109,3094,3125,3157,3206,3240,3275,3328,3383,3439,3498,3579,3709,3848,4024,4217,0,0,0,0,0,0,0,0,0,0,0,0,0,0,0,0,0,0,6765,6765,6765,6692,6765,6692,6692,0,0,0,0,0,0,2482,2472,2472,2472,2472,2463,2453,2453,2453,2453,2443,2443,2443,2443,2453,2453,2453,2463,2463,2463,2463,2463,2463,2463,2472,2472,2482,2482,2482,2492,2503,0,0,0,0,0,0,0,0,0,0,3078,3003,2946,2877,2850,2811,2748,2724,2688,2688,2688,2700,2712,2700,2688,2688,2665,2654,2654,2654,2642,2631,2642,2642,2665,2677,2688,2700,2700,2712,2724,2724,2712,2712,2700,2700,2688,2688,2677,2665,2665,2654,2654,2654,2654,2665,2665,2677,2688,2700,2724,2736,2748,2736,2748,2748,2761,2773,2798,2837,0,0,0,3206,3401,3538,3686,3709,3709,3686,3665,3686,3665,3665,3643,3643,3643,3643,3665,3643,3621,3600,3559,3538,3518,3498,3478,3478,3459,3439,3420,3439,3439,3439,3420,3401,3328,3328,3310,3310,3292,3275,3257,3240,3223,3190,3157,3141,3109,3094,3078,3063,3033,3033,3018,3003,2989,2946,2918,2904,2890,2761,0,0,0,0,0,1701,1696,1696,1696,1691,1691,1691,1687,1682,1678,1673,1664,1646,1633,1612,1599,1583,1571,1555,1543,1531,1520,1509,1505,1498,1491,1487,1480,1476,1473,1473,1469,1469,1476,1480,1483,1491,1494,1498,1502,1505,1509,1509,1505,1509,1509,1513,1516,1520,1520,1524,1524,1528,1531,1535,1539,1543,1551,1563,1575,1591,1612,1633,1655,1668,1682,1754,1849,0,0,0,2175,2272,2280,2280,2289,2289,2289,2297,2306,2306,2314,2323,2323,2332,2341,2359,2368,2386,2395,2405,2414,2414,2414,2414,2414,2405,2386,2386,2368,2359,2359,2350,2350,2341,2332,2332,2323,2323,2314,2314,2306,2306,2297,2297,2289,2280,2272,2272,2255,2247,2247,2239,2231,2223,2215,2207,2199,2191,2183,2175,2175,2168,2168,2160,2153,2153,2153,2145,2138,2123,2123,2116,2108,2094,2087,2080,2080,2080,2080,2080,2080,2080,0,0,0,0,1140,1142,1142,1142,1142,1140,1142,1142,1142,1142,1142,1144,0,0,0,0,0,0,1877,1888,1894,1906,1912,1930,1948,1961,1973,1980,1986,1992,1992,1992,1992,1992,1999,1999,2005,2012,2019,2025,2032,2039,2045,2045,2052,2052,2045,2045,2045,2045,2039,2025,2019,2005,1992,1992,1986,1986,1986,1986,1992,1999,2019,2025,2032,2025,2019,2012,2005,1999,1999,1986,1980,1973,1973,1973,1973,1980,1980,1980,1980,1980,1986,1986,1986,1986,1986,1992,1992,1992,1992,1986,1986,0,0,0,0,0,0,0,0,0,0,0,0,0,0,0,0,0,0,0,0
3173,3190,3190,3206,3223,3240,3275,3292,3328,3364,3401,3439,3498,3538,3600,3665,3709,3800,3848,3921,3998,4024,4077,4104,4132,4132,4132,4160,4160,4188,4217,4217,4246,4275,4336,4397,4461,4494,4594,4664,4772,4848,4886,4925,4925,4925,4925,4925,4848,4848,4772,4736,4700,4700,4700,4700,4700,4700,4700,4736,4736,4772,4810,4848,4886,4925,4965,5005,5005,5005,5046,5046,5005,5005,5005,5005,5005,5046,5046,5046,5046,5046,5005,4965,4886,4772,4736,4664,4594,4560,4560,4494,4494,4494,4494,4494,4527,4560,4629,4736,4848,5005,5173,5353,5546,5754,5977,6095,6219,6347,6347,6282,6219,6095,5977,5808,5700,5546,5400,5353,5307,5262,5217,5217,5173,5173,5130,5130,5173,5173,5130,5088,5046,5005,5005,4965,4886,4810,4736,4664,4594,4494,4336,4132,3946,3754,3579,3478,3383,3292,3223,3173,3157,3141,3125,3125,3125,3157,3190,3240,3275,3310,3401,3459,0,0,0,0,0,0,4560,0,0,0,0,6549,6620,6765,6840,6765,6765,6840,6917,6917,6840,6840,6840,6840,6917,6840,6840,6840,6765,6765,6765,6765,0,0,0,0,0,2482,2472,2472,2472,2472,2472,2463,2453,2453,2453,2453,2453,2453,2453,2453,2453,2463,2463,2463,2472,2472,2472,2472,2472,2472,2472,2472,2472,2472,2482,0,0,0,0,0,0,0,0,0,0,0,0,0,0,0,3109,3033,2974,2904,2850,2811,2786,2786,2786,2798,2798,2786,2773,2736,2724,2712,2688,2665,2654,2654,2665,2688,2688,2700,2712,2712,2724,2724,2736,2724,2712,2712,2700,2700,2688,2677,2665,2665,2654,2654,2654,2654,2665,2677,2688,2688,2700,2712,2724,2736,2724,2724,2724,2736,2761,2773,2824,0,0,3063,3190,3364,3498,3621,3665,3665,3643,0,3643,3643,3621,0,3643,3643,3665,0,0,0,0,0,3538,3538,3518,3478,3478,3459,3439,3420,3420,3439,3439,3420,3401,3328,3310,3310,3310,3275,3275,3257,3240,3223,3190,3141,3125,3109,3078,3063,3048,3033,3018,3003,3003,2989,2932,2918,2890,2877,0,0,0,0,0,0,0,1691,1691,1691,1687,1687,1687,1678,1673,1673,1664,1655,1642,1624,1607,1595,1583,1567,1555,1543,1535,1524,1513,1509,1502,1494,1487,1483,1480,1476,1473,1473,1473,1476,1480,1487,1491,1494,1498,1502,1505,1509,1505,1505,1505,1509,1513,1516,1520,1520,1524,1528,1528,1531,1535,1539,1543,1551,1559,1575,1591,1612,1633,1655,1664,1682,1744,1843,0,0,2087,2175,2272,2272,2280,2280,2289,2289,2297,2297,2306,2314,2323,2323,2332,2341,2350,2368,2386,2395,2405,2424,2424,2424,2424,2424,2405,2395,2386,2377,2368,2359,2350,2350,2341,2341,2332,2323,2323,2314,2314,2314,2306,2297,2297,2289,2280,2272,2263,2255,2247,2239,2239,2231,2223,2215,2207,2199,2191,2183,2175,2168,2168,2160,2160,2153,2153,2145,2138,2138,2123,2116,2116,2101,2094,2087,2080,2080,2080,2080,2080,2073,2073,2087,0,0,0,1140,1140,1140,1142,1142,1140,1140,1142,1142,1142,1142,0,0,0,0,0,0,0,1866,1871,1888,1894,1900,1924,1936,1954,1967,1973,1986,1992,1992,1992,1992,1992,1992,1999,2005,2012,2012,2019,2032,2039,2045,2045,2045,2045,2045,2045,2045,2039,2039,2025,2019,1999,1992,1986,1986,1986,1986,1986,1992,1999,2012,2025,2032,2025,2012,2005,1999,1992,1986,1980,1973,1967,1967,1967,1967,1967,1973,1973,1973,1973,1973,1973,1973,1973,1973,1980,1980,1980,1980,1980,1980,0,0,0,0,0,0,0,0,0,0,0,0,0,0,0,0,0,0,0,0
3190,3190,3206,3223,3223,3240,3275,3292,3310,3328,3364,3401,3478,3518,3559,3621,3686,3777,3824,3896,3972,3998,4050,4077,4077,4104,4104,4104,4132,4132,4160,4188,4217,4246,4275,4336,4397,4461,4527,4594,4700,4772,4848,4886,4925,4965,4965,4965,4925,4886,4848,4810,4772,4736,4736,4736,4736,4736,4736,4772,4772,4848,4886,4886,4925,4965,5046,5046,5046,5088,5088,5088,5046,5046,5046,5088,5088,5088,5088,5088,5088,5088,5088,5005,4925,4848,4772,4700,4629,4594,4560,4494,4494,4494,4494,4494,4527,4560,4629,4700,4810,4925,5088,5262,5448,5648,5863,6036,6156,6282,6282,6219,6219,6095,5920,5808,5700,5546,5448,5400,5353,5307,5262,5262,5262,5217,5217,5217,5217,5217,5173,5130,5088,5046,5046,5005,4925,4848,4810,4700,4594,4527,4366,4188,4024,3848,3665,3538,3439,3346,3275,3206,3173,3141,3141,3157,3157,3173,3206,3275,3328,3383,3498,0,3686,3824,3946,4188,0,0,0,5173,5448,5700,6095,6549,6620,6765,6765,6840,6840,6917,6917,6917,6917,6917,6917,6917,6917,6917,6917,6840,6840,6840,6765,6765,0,0,0,0,0,2482,2482,2472,2482,2472,2472,2463,2463,2463,2463,2463,2463,2463,2463,2463,2463,2463,2472,2472,2472,2482,2482,2482,2482,2472,2482,2482,2482,2482,0,0,0,0,0,4024,4104,0,0,0,0,0,0,0,3643,3518,0,0,3190,3109,3033,2974,2932,2918,2918,2932,2918,2904,2863,2824,2798,2761,2736,2700,2677,2665,2677,2688,2700,0,2724,2736,2736,2736,2736,2736,2724,2712,2712,2700,2688,2677,2677,2677,2665,2654,2654,2654,2665,2677,2677,2677,2700,2700,2712,2700,2700,2700,2712,2724,2736,2761,2811,2877,2960,0,0,3310,3420,3538,3559,3579,0,0,0,0,0,0,0,0,0,0,0,0,0,0,3579,3538,3518,3518,3498,3478,3439,0,0,0,3420,3401,0,0,0,0,0,3275,3257,3240,3223,3206,3173,3125,3109,3094,3063,3048,3033,3018,3003,2989,2989,2974,2918,2904,2877,2863,0,0,0,0,0,0,0,1687,1682,1682,1678,1678,1678,1668,1668,1664,1659,1646,1633,1620,1603,1591,1579,1567,1555,1547,1535,1524,1516,1509,1505,1498,1491,1483,1480,1476,1476,1476,1476,1480,1483,1487,1491,1498,1498,1502,1502,1505,1505,1505,1505,1509,1513,1516,1516,1520,1524,1524,1528,1531,1535,1539,1547,1551,1559,1575,1587,1607,1633,1655,1664,1682,1744,1838,0,0,2080,2175,2272,2272,2280,2280,2280,2289,2289,2297,2306,2306,2314,2323,2332,2341,2350,2368,2377,2395,2405,2424,2424,2433,2433,2424,2414,2405,2395,2386,2368,2368,2359,2359,2350,2341,2332,2323,2323,2314,2314,2314,2306,2297,2297,2289,2280,2272,2263,2255,2247,2239,2231,2223,2215,2207,2199,2191,2183,2175,2168,2168,2160,2153,2153,2153,2153,2145,2138,2130,2123,2116,2116,2101,2094,2087,2087,2080,2080,2080,2080,2080,2080,2087,0,1138,0,1140,1140,1140,1140,1140,1140,1140,1142,1142,1142,1142,0,0,0,0,0,0,0,1849,1860,1871,1883,1888,1912,1930,1942,1954,1967,1980,1986,1986,1986,1986,1986,1992,1999,2005,2005,2012,2019,2025,2032,2039,2045,2045,2045,2045,2045,2045,2039,2039,2025,2019,1999,1992,1986,1986,1986,1986,1986,1992,1999,2012,2025,2025,2019,2012,2005,1992,1986,1980,1973,1967,1961,1961,1954,1961,1961,1961,1961,1961,1961,1967,1967,1967,1967,1973,1973,1980,1980,1980,1980,0,0,0,0,0,0,0,0,0,0,0,0,0,0,0,0,0,0,0,0,0
3223,3206,3223,3223,3223,3240,3257,3275,3292,3328,3346,3383,3439,3478,3518,3579,3643,3709,3777,3848,3921,3972,4024,4050,4050,4050,4050,4077,4104,4104,4104,4132,4160,4188,4246,4275,4336,4397,4461,4527,4629,4700,4772,4848,4886,4925,4965,4965,4965,4925,4886,4848,4810,4810,4810,4810,4810,4810,4848,4886,4886,4925,5005,5046,5046,5088,5088,5130,5130,5130,5130,5088,5088,5088,5046,5088,5088,5088,5130,5130,5088,5130,5088,5046,4965,4886,4810,4700,4664,4629,4560,4527,4494,4461,4494,4494,4494,4527,4560,4664,4772,4886,5005,5173,5400,5546,5754,5920,6036,6156,6219,6219,6156,6095,5977,5863,5754,5648,5497,5448,5400,5400,5353,5307,5307,5307,5262,5262,5262,5217,5217,5173,5130,5088,5088,5046,4965,4886,4848,4736,4664,4594,4461,4275,0,3946,3754,3621,3518,3420,3328,3257,3206,3173,3173,3173,3173,3190,3223,3292,3364,3459,3579,3709,0,0,0,0,0,0,5173,5448,5700,5920,6156,6549,6620,6692,6765,6765,6917,6840,6917,6917,6917,6917,6917,6917,6917,6917,6917,6840,6840,6840,6765,6765,0,0,0,0,2492,2492,2482,2472,2472,2472,2463,2463,2463,2463,2463,2472,2472,2472,2472,2472,2472,2472,2482,2482,2492,2503,2503,2513,2513,2513,2523,2534,2544,0,0,0,0,0,4925,4925,4886,4810,4810,4700,4594,4461,4366,4246,4050,3896,3731,0,0,3346,3257,3173,3109,3094,3078,3078,3063,3033,3003,2946,2890,2850,2798,2748,2712,2677,2677,2700,2712,0,2724,2748,2748,2748,2748,2736,2736,2724,2712,2700,2688,2688,2677,2677,2665,2654,2654,2654,2665,2665,2665,2665,2677,2688,2688,2688,2677,2688,2688,2712,2736,2761,2811,2877,2946,0,0,3275,0,0,3478,0,0,0,0,0,0,0,3665,3686,3686,3709,3686,3665,3665,3621,3600,3579,3538,3518,3498,0,0,0,0,0,0,0,0,0,0,0,0,0,0,0,0,0,0,0,3078,3048,3033,3018,3003,2989,2974,2974,2960,2960,2918,0,0,0,0,0,0,0,0,0,0,0,1682,1682,1678,1678,1673,1668,1664,1659,1651,1637,1620,1612,1599,1587,1575,1567,1559,1547,1539,1528,1520,1513,1505,1498,1494,1487,1483,1480,1480,1480,1480,1483,1487,0,0,1498,1502,1502,1502,1505,1505,1505,1505,1509,1513,1516,1516,1520,1524,1524,1528,1531,1535,1539,1547,1551,1559,1571,1587,1607,1629,1651,1664,1682,1744,1838,0,0,2080,2168,2272,2272,2280,2280,2280,2289,2289,2297,2297,2306,2314,2323,2332,2341,2350,2368,2377,2395,2405,2424,2424,2433,2433,2424,2414,2414,2395,2386,2377,2368,2359,2359,2350,2341,2332,2323,2323,2314,2314,2314,2306,2297,2297,2289,2280,2272,2263,2255,2247,2239,2231,2223,2215,2199,2191,2183,2175,2168,2160,2160,2153,2153,2153,2145,2145,2138,2138,2130,2123,2116,2108,2101,2094,2087,2080,2080,2080,2087,2087,2087,2087,2087,0,1138,0,1138,1140,1138,1140,1140,1140,1140,1142,1142,1142,1142,0,0,0,0,0,0,0,1838,1849,1860,1871,1883,1900,1918,1930,1948,1961,1973,1980,1980,1980,1986,1986,1986,1992,1999,2005,2012,2019,2025,2032,2039,2039,2039,2039,2039,2039,2039,2039,2032,2025,2012,1999,1992,1986,1986,1986,1986,1986,1986,1999,2005,2019,2019,2019,2005,1999,1986,1980,1973,1967,1961,1954,1954,1948,1948,1954,1954,1954,1954,1954,1954,1954,1961,1961,1967,1973,1973,1980,1980,1980,0,0,0,0,0,0,0,0,0,0,0,0,0,0,0,0,0,0,0,0,0
3206,3206,3206,3206,3206,3223,3240,3257,3275,3275,3310,3328,3383,3420,3459,3518,3579,3621,3686,3777,3824,3896,3946,3972,3972,3998,4024,4024,4024,4050,4050,4077,4104,4132,4160,4217,4246,4305,4366,4429,4527,4594,4700,4772,4848,4886,4965,5005,5005,5005,5005,4925,4925,4925,4925,4886,4886,4925,4925,4925,4965,5005,5046,5088,5130,5173,5173,5173,5130,5173,5130,5130,5088,5046,5046,5046,5088,5088,5088,5130,5088,5088,5088,5046,5005,4886,4772,4700,4664,4629,4560,4527,4494,4494,4494,4527,4527,4527,4560,4629,4700,4810,4965,5088,5262,5497,5648,5808,5977,6095,6156,6156,6156,6095,5977,5920,5808,5700,5597,5546,5497,5448,5448,5400,5353,5353,5353,5353,5307,5262,5262,5217,5173,5130,5130,5088,5046,4965,4925,4848,4772,4664,4560,4429,4246,4077,3896,3731,3621,3518,3401,3310,3240,3206,3206,3190,3206,3206,3240,3328,3420,3538,0,0,0,0,4527,4810,5046,5217,5448,5700,5977,6095,6282,6480,6620,6765,6840,6840,6840,6917,6917,6996,6917,6917,6996,6917,6917,6917,6917,6840,6840,6840,6765,6765,0,0,2513,2513,2492,2492,2482,2482,2472,2472,2463,2463,2463,2472,2472,2472,2482,2482,2482,2482,2482,2482,2492,2503,2513,2523,2544,2544,2565,2565,2576,2620,0,0,0,0,0,5353,5353,5353,5307,5262,5217,5130,5046,4965,4886,4736,4527,4305,4132,3972,0,0,0,3383,0,0,3240,3223,3223,3190,3141,0,0,0,2863,2811,2761,2712,2700,2712,2724,2736,2748,2761,2761,2761,2761,2748,2748,2736,2724,2724,2700,2688,2688,2677,2665,2654,2654,2642,2654,2654,2654,2665,2665,2665,2677,2677,2677,2665,2688,2700,2724,2748,2798,2863,2946,3033,3157,3257,0,0,0,0,0,0,0,3621,3643,3686,3686,3709,3709,3731,3709,3709,3686,3643,3621,3600,3579,3559,0,0,0,0,0,0,0,0,0,0,0,0,0,0,0,0,0,0,0,0,0,3018,3018,2989,2974,2960,2946,2932,2932,2932,0,0,0,0,0,0,0,0,0,0,0,0,0,0,0,0,0,0,0,0,0,0,0,0,1591,1579,1571,1567,1559,1547,1539,1528,1520,1513,1505,1502,1494,1487,1483,1483,1483,1483,1483,1491,1494,1494,0,1502,1502,1502,1502,1502,1505,1505,1505,1509,1509,1513,1516,1520,1524,1524,1528,1531,1535,1543,1547,1551,1559,1571,1587,1603,1629,1651,1659,1678,1739,1838,0,0,2080,2168,2272,2272,2280,2280,2280,2289,2289,2297,2306,2306,2314,2323,2332,2341,2350,2368,2377,2395,2405,2414,2424,2424,2433,2424,2414,2414,2395,2386,2377,2368,2359,2359,2350,2341,2332,2323,2323,2314,2314,2314,2306,2297,2297,2289,2280,2272,2263,2255,2247,2239,2231,2215,2207,2199,2191,2183,2175,2168,2160,2153,2153,2153,2145,2145,2138,2138,2130,2123,2123,2116,2108,2101,2094,2087,2087,2080,2080,2087,2087,2087,2087,2094,0,1136,0,1138,1138,1138,1140,1140,1138,1140,1142,1140,1140,0,0,0,0,0,0,0,0,1832,1843,1854,1866,1871,1888,1906,1924,1942,1954,1961,1973,1973,1973,1980,1980,1986,1992,1999,2005,2012,2019,2025,2032,2039,2039,2039,2039,2039,2039,2039,2039,2032,2025,2012,1999,1992,1986,1986,1986,1980,1986,1986,1992,2005,2019,2019,2012,2005,1992,1986,1980,1973,1961,1954,1948,1948,1948,1942,1948,1948,1948,1948,1948,1948,1954,1954,1961,1961,1967,1973,1973,1973,1980,0,0,0,0,0,0,0,0,0,0,0,0,0,0,0,0,0,0,0,0,0
3206,3190,3206,3206,3190,3206,3223,3223,3240,3257,3275,3292,3328,3364,3383,3439,3478,3538,3600,3665,3731,3777,3824,3872,3872,3896,3921,3921,3946,3972,3972,3998,4024,4050,4077,4132,4160,4217,4275,4336,4429,4527,4594,4700,4772,4848,4925,4965,5005,5005,5005,4925,4886,4848,4848,4848,4848,4848,4848,4886,4925,4965,5005,5088,5088,5130,5130,5130,5088,5130,5088,5088,5046,5046,5005,5046,5046,5088,5088,5088,5046,5046,5046,5046,4965,4848,4772,4664,4629,4594,4560,4494,4461,4494,4461,4494,4494,4494,4527,4560,4629,4736,4848,5005,5173,5353,5546,5700,5863,5977,6095,6156,6156,6095,6036,5977,5920,5808,5700,5648,5597,5546,5546,5546,5497,5497,5448,5353,5353,5307,5307,5262,5173,5130,5130,5130,5088,5005,5005,4925,4810,4772,4629,4527,4366,4188,4024,3848,3731,3600,3459,3364,3275,3240,3223,3206,3223,3240,3275,3383,3498,3643,0,4050,0,0,4925,5173,5353,5546,5700,5920,6156,6219,6347,6480,6620,6692,6840,6840,6840,6917,6996,6996,6996,6996,6996,6996,6996,6996,6996,6917,6917,6917,6840,6840,0,2513,2513,2503,2492,2482,2482,2472,2472,2463,2472,2463,2463,2472,2472,2472,2482,2482,2492,2492,2492,2492,2503,2523,2544,2565,2576,2598,2609,2620,2642,0,0,0,0,0,5262,5307,5353,5307,5307,5262,5217,5217,5130,5088,5005,4965,4772,4629,4461,4275,4077,3921,0,0,3518,3478,3420,3401,3383,3364,3310,3223,3125,0,0,2890,2811,2736,2700,2724,2748,2748,2761,2786,2786,2786,2773,2761,2761,2748,2736,2724,2712,2700,2688,2677,2665,2665,2654,2642,2654,2654,2654,2654,2654,2654,2654,2654,2642,2654,2665,2688,2700,2736,2773,2850,2932,3018,3109,3223,3275,3346,3401,3459,3518,3559,3579,3621,3643,3709,3731,3754,3754,3754,3754,3754,3731,3686,3665,3643,3621,3600,0,0,0,0,0,0,0,0,0,0,0,0,0,0,0,0,0,0,0,0,0,2989,2960,2946,2946,2932,2918,2918,2918,0,0,0,0,0,0,0,0,0,0,0,0,0,0,0,0,0,0,0,0,0,0,0,0,0,1583,1579,1571,1563,1559,1551,1543,1528,1520,1513,1505,1498,1494,1487,1487,1483,1487,1487,1487,1491,1498,1502,0,0,1505,1502,1502,1502,1502,1502,1505,1505,1509,1513,1516,1520,1520,1524,1528,1531,1539,1543,1547,1551,1559,1567,1583,1603,1624,1642,1655,1668,1744,1843,0,0,2087,2175,2272,2272,2272,2280,2280,2289,2289,2297,2306,2306,2314,2323,2332,2341,2359,2368,2377,2395,2405,2414,2424,2424,2424,2424,2414,2414,2395,2395,2377,2368,2359,2359,2350,2341,2332,2323,2323,2314,2314,2314,2306,2297,2297,2289,2280,2272,2263,2255,2247,2239,2231,2215,2207,2191,2183,2175,2168,2160,2153,2153,2153,2145,2145,2138,2138,2138,2130,2123,2123,2116,2108,2101,2101,2094,2087,2087,2087,2087,2094,2094,2094,2094,0,1136,0,1136,1138,1136,1138,1138,1138,1138,1140,1140,1140,0,0,0,0,0,0,0,0,1827,1838,1849,1860,1871,1888,1900,1918,1930,1948,1954,1967,1967,1973,1980,1980,1980,1992,1999,2005,2012,2019,2025,2032,2032,2039,2039,2039,2032,2032,2032,2032,2032,2019,2012,1999,1986,1986,1980,1986,1980,1980,1986,1992,1999,2012,2019,2012,2005,1992,1986,1973,1973,1967,1954,1948,1942,1942,1942,1942,1942,1942,1942,1942,1942,1942,1948,1954,1961,1967,1967,1973,1980,1980,0,0,0,0,0,0,0,0,0,0,0,0,0,0,0,0,0,0,0,0,0
3190,3173,3190,3190,3190,3190,3190,3206,3223,3223,3240,3257,3292,3310,3328,3364,3401,3459,3498,3579,3621,3686,3731,3754,3777,3800,3824,3848,3848,3872,3896,3921,3972,3998,4024,4050,4104,4132,4188,4246,4305,4397,4494,4594,4700,4736,4810,4886,4925,4925,4925,4925,4848,4810,4772,4810,4772,4810,4810,4810,4848,4925,4965,5005,5005,5046,5046,5046,5046,5046,5046,5046,5005,5005,5005,5005,5005,5046,5046,5005,5005,5005,5005,5005,4965,4848,4772,4664,4629,4594,4527,4494,4494,4461,4461,4461,4494,4461,4461,4494,4594,4664,4772,4886,5046,5217,5400,5546,5754,5920,6036,6095,6156,6156,6095,6095,6036,5920,5863,5808,5754,5700,5648,5648,5597,5546,5497,5448,5400,5353,5307,5262,5262,5173,5173,5173,5130,5088,5046,5005,4925,4848,4736,4594,4494,4336,4160,3946,3824,3665,3538,3420,3310,3257,3240,3223,3257,3257,3310,3420,3579,3777,3998,4188,4429,4772,5046,5307,5400,5597,5754,5920,6156,6219,6347,6480,6620,6692,6840,6840,6917,6917,6996,6996,7076,7076,6996,6996,6996,6996,6996,6996,6996,6917,6917,0,2523,2513,2513,2503,2503,2492,2482,2482,2472,2472,2463,2463,2463,2472,2472,2482,2482,2492,2492,2503,2503,2513,2523,2544,2565,2598,2620,2642,2665,0,2700,2824,0,0,0,0,5262,5307,5307,5307,5307,5262,5217,5173,5130,5088,5046,5005,4886,4772,4629,4527,4336,4188,4024,3872,3777,3709,3643,3600,3579,3559,3498,3401,3275,0,0,2960,2877,2773,2712,2724,2748,0,2761,2786,2798,2798,2786,2773,2773,2761,2748,2736,2712,2700,2700,2688,2677,2665,2654,2654,2642,2654,2642,2642,2642,2631,2642,2642,2631,2642,2654,2665,2688,2724,2761,2811,2890,2974,3063,3141,3206,3275,3346,3420,3478,3538,3579,3621,3665,3731,3731,3777,3777,3777,3777,3777,3754,3731,3709,3686,3686,0,0,0,0,0,0,0,0,0,0,0,0,0,0,0,0,0,0,0,0,0,0,0,2918,2918,2904,2890,2890,2890,2877,0,0,0,0,0,0,0,0,0,0,0,0,0,0,0,0,0,0,0,0,0,0,0,0,0,1583,1575,1567,1563,1559,1551,1543,1531,1524,1516,1509,1502,1498,1491,1487,1487,1487,1491,1494,1498,1502,1505,0,1509,1505,1502,1502,1502,1502,1502,1502,1505,1509,1513,1516,1520,1524,1528,1531,1535,1539,1543,1547,1551,1555,1567,1579,1599,1620,1637,1646,1678,1759,1860,0,0,2108,2191,2272,2272,2280,2280,2280,2289,2297,2297,2306,2306,2314,2323,2332,2341,2359,2368,2377,2386,2405,2414,2424,2424,2424,2424,2414,2414,2395,2395,2377,2368,2359,2359,2350,2341,2332,2323,2323,2314,2314,2306,2306,2297,2297,2289,2280,2272,2263,2255,2247,2239,2223,2215,2199,2191,2183,2175,2168,2160,2153,2153,2145,2145,2138,2138,2138,2130,2130,2123,2123,2116,2108,2101,2101,2094,2094,2087,2087,2094,2094,2094,2094,2094,0,1134,0,1136,1136,1136,1138,1138,1136,1136,1138,1138,1136,1136,0,0,0,0,0,0,0,1827,1838,1843,1854,1866,1883,1894,1912,1924,1942,1954,1961,1967,1967,1973,1973,1980,1986,1992,1999,2005,2012,2019,2025,2025,2032,2032,2032,2032,2032,2032,2032,2025,2019,2005,1992,1986,1980,1980,1980,1980,1980,1980,1992,1999,2005,2012,2005,2005,1992,1986,1973,1967,1961,1961,1948,1942,1936,1936,1936,1936,1936,1936,1936,1936,1936,1936,1942,1954,1954,1961,1967,1973,1973,0,0,0,0,0,0,0,0,0,0,0,0,0,0,0,0,0,0,0,0,0
3190,3173,3190,3173,3173,3173,3190,3190,3206,3206,3223,3223,3257,3275,3292,3328,3364,3383,3420,3478,3538,3600,3643,3665,3709,3731,3731,3754,3777,3800,3824,3848,3896,3896,3946,3972,3998,4024,4077,4132,4188,4246,4336,4461,4560,4629,4736,4810,4848,4925,4925,4925,4848,4772,4772,4736,4736,4736,4736,4772,4810,4848,4886,4925,4925,4965,4965,4965,4965,5005,4965,4965,4965,4925,4925,4925,4965,4965,4965,4965,4925,4925,4965,4925,4886,4810,4700,4629,4594,4560,4527,4494,4461,4429,4429,4429,4429,4429,4429,4429,4494,4594,4700,4810,4925,5088,5307,5497,5700,5863,5977,6095,6156,6156,6156,6156,6095,5977,5920,5863,5808,5754,5700,5648,5648,5648,5597,5497,5448,5400,5353,5307,5262,5217,5173,5173,5173,5130,5088,5046,5005,4925,4810,4700,4594,4461,4275,4050,3921,3754,3600,3478,3346,3275,3257,3240,3275,3275,3346,3478,3643,0,0,0,4629,5005,5262,5448,5597,5700,5808,5920,6095,6156,6347,6480,6620,6692,6840,6917,6917,6996,6996,7076,7076,7159,7076,7076,7076,7076,7076,7076,6917,6917,0,2523,2513,2513,2513,2503,2492,2492,2482,2482,2472,2472,2472,2463,2463,2472,2472,2482,2482,2492,2492,2503,2513,2523,2544,2565,2598,2642,2654,2700,2724,2761,2798,2989,3310,0,0,4772,5217,5307,5307,5307,5307,5262,5217,5173,5130,5088,5046,5005,4965,4886,4772,4700,4527,4429,4275,4132,4024,3921,3848,3800,3754,3731,3686,3600,3439,3328,0,3078,2960,2824,2736,2736,0,0,2773,2798,2811,2798,2798,2786,2773,2761,2761,2748,2724,2712,2700,2688,2677,2665,2654,2642,2642,2642,2642,2631,2620,2620,2620,2620,2620,2620,2631,2654,2677,2712,2748,2798,2863,2918,3003,3078,3125,3190,3275,3364,3439,3518,3559,3621,3665,3731,3754,3777,3800,3800,3800,3800,3777,3777,3777,3754,3754,0,0,0,0,0,0,0,0,0,0,0,0,0,0,0,0,0,0,0,0,0,0,0,2890,2877,2877,2863,2863,2863,2863,2863,0,0,0,0,0,0,0,0,0,0,0,0,0,0,0,0,0,0,0,0,0,0,0,1579,1575,1571,1567,1563,1559,1551,1543,1535,1528,1516,1513,1505,1502,1494,1491,1487,1494,1494,1494,1502,1502,0,0,1509,1505,1502,1498,1498,1502,1502,1502,1505,1509,1513,1520,1520,1524,1524,1531,1535,1539,1543,1547,1551,1559,1567,1579,1595,1607,1633,1637,1673,1769,1877,0,0,2130,2199,2272,2272,2280,2280,2289,2297,2297,2306,2306,2314,2323,2332,2341,2350,2359,2368,2377,2386,2405,2405,2414,2424,2424,2414,2414,2405,2395,2386,2377,2368,2359,2359,2350,2341,2332,2323,2323,2314,2306,2306,2306,2297,2297,2289,2280,2272,2263,2255,2247,2231,2223,2215,2199,2191,2183,2168,2160,2153,2153,2145,2145,2138,2138,2138,2138,2130,2123,2123,2123,2116,2108,2101,2101,2094,2094,2094,2094,2094,2094,2094,2101,2101,0,0,0,1136,1136,1134,1138,1136,1136,1134,1136,1136,1136,1136,1136,0,0,0,0,0,0,0,1838,1843,1854,1866,1877,1888,1906,1918,1936,1948,1954,1961,1961,1967,1967,1973,1980,1986,1992,1999,2005,2012,2019,2025,2032,2032,2032,2032,2032,2032,2025,2025,2012,2005,1992,1980,1980,1973,1973,1973,1980,1980,1992,1999,2005,2012,2012,2005,1999,1986,1980,1973,1967,1961,1948,1942,1936,1930,1930,1930,1930,1930,1924,1924,1930,1936,1942,1948,1954,1961,1961,1973,0,0,0,0,0,0,0,0,0,0,0,0,0,0,0,0,0,0,0,0,0,0
3173,3157,3157,3173,3157,3157,3173,3173,3173,3190,3190,3206,3223,3240,3275,3275,3310,3328,3383,3439,3459,3518,3559,3600,3621,3643,3665,3686,3709,3731,3754,3777,3800,3824,3848,3896,3921,3946,3972,3998,4050,4132,4217,4305,4429,4494,4594,4700,4772,4848,4886,4886,4810,4736,4700,4700,4700,4700,4700,4700,4736,4772,4810,4848,4886,4886,4925,4886,4925,4925,4886,4886,4886,4848,4848,4848,4848,4848,4848,4848,4848,4848,4848,4810,4810,4736,4664,4594,4594,4527,4527,4494,4461,4429,4429,4397,4397,4397,4366,4366,4429,4494,4594,4700,4848,5005,5173,5400,5597,5754,5920,6095,6156,6219,6156,6156,6095,6036,5977,5920,5863,5808,5754,5754,5700,5700,5648,5546,5497,5448,5400,5353,5307,5262,5217,5173,5173,5173,5173,5088,5046,4965,4886,4810,4736,4594,4429,4188,4024,3872,3686,3538,3401,3292,3257,3240,3275,3292,3346,3498,3665,0,0,4397,4700,5088,5307,5448,5546,5648,5754,5920,6036,6095,6219,6413,6549,6692,6692,6840,6917,6917,6996,6996,7076,7076,7076,7076,7076,6996,6996,6996,6996,0,2523,2513,2513,2513,2513,2503,2492,2492,2482,2482,2472,2472,2472,2463,2463,2472,2472,2482,2482,2492,2492,2503,2523,2534,2565,2598,2642,2688,2724,2761,2811,2850,2918,3157,3559,0,0,5046,5217,5262,5307,5307,5307,5307,5217,5173,5130,5088,5046,5005,4925,4886,4810,4736,4629,4527,4397,4305,4188,4104,4024,3972,3946,3921,3896,3800,3643,3498,0,3190,3033,2877,2748,0,0,0,2786,2798,2811,2811,2798,2798,2786,2773,2761,2748,2724,2712,2700,2688,2677,2665,2654,2642,2654,2642,2631,2620,2620,2609,2609,2609,2609,2609,2631,2654,2665,2700,2748,2798,2863,2932,3003,0,3109,3173,3275,3346,3439,0,3579,3600,3665,3754,3777,3800,3824,3824,3824,3824,3824,3824,3824,3824,3824,0,0,0,0,0,0,0,0,0,0,0,0,0,0,0,0,0,0,0,0,0,0,0,2837,2837,2850,2837,2837,2837,2837,2837,0,0,0,0,0,0,0,0,0,0,0,0,0,0,0,0,0,0,0,0,0,0,0,1575,1575,1571,1567,1563,1559,1551,1543,1535,1528,1520,1513,1509,1502,1494,1491,1491,1494,1498,1498,1505,1509,1513,0,0,0,1502,1498,1498,1502,1502,1502,1505,1509,1513,1516,1520,1524,1528,1531,1535,1539,1543,1547,1551,1559,1567,1579,1591,1607,1629,1637,1687,1800,1906,0,0,2153,2215,2272,2280,2280,2289,2289,2297,2306,2306,2314,2314,2323,2332,2341,2350,2359,2368,2377,2386,2395,2405,2405,2414,2414,2414,2405,2405,2395,2386,2377,2368,2359,2350,2341,2332,2332,2323,2323,2314,2306,2306,2297,2297,2297,2289,2280,2272,2263,2255,2247,2231,2223,2215,2199,2191,2175,2168,2160,2153,2145,2145,2138,2138,2138,2138,2138,2130,2123,2123,2116,2116,2108,2101,2101,2094,2094,2094,2094,2094,2101,2101,2101,2101,0,0,0,1136,1134,1136,1136,1136,1134,1132,1134,1134,1134,1134,0,0,0,0,0,0,0,0,1838,1843,1854,1866,1877,1888,1900,1918,1930,1942,1948,1954,1961,1961,1967,1973,1973,1986,1992,1999,2005,2012,2012,2019,2025,2032,2032,2032,2032,2025,2025,2025,2012,1999,1986,1980,1973,1973,1973,1973,1973,1980,1986,1992,2005,2012,2012,2005,1999,1992,1980,1973,1973,1961,1954,1948,1936,1930,1930,1930,1924,1924,1918,1918,1924,1930,1936,1942,1948,1954,1961,1967,0,0,0,0,0,0,0,0,0,0,0,0,0,0,0,0,0,0,0,0,0,0
3157,3141,3157,3157,3141,3157,3141,3157,3157,3173,3173,3190,3206,3223,3240,3257,3292,3310,3346,3383,3420,3459,3498,3518,3559,3579,3600,3621,3643,3665,3686,3709,3731,3754,3777,3800,3824,3848,3872,3896,3946,3998,4050,4160,4246,4336,4461,4560,4664,4772,4848,4886,4810,4772,4700,4629,4629,4629,4629,4594,4664,4700,4736,4772,4810,4810,4810,4848,4848,4810,4810,4810,4772,4736,4736,4736,4772,4772,4772,4736,4700,4736,4736,4736,4700,4629,4560,4527,4527,4527,4494,4461,4429,4397,4397,4366,4366,4336,4336,4305,4366,4429,4527,4594,4736,4886,5088,5307,5497,5754,5863,6036,6095,6156,6156,6156,6156,6095,6036,5920,5920,5863,5808,5754,5754,5754,5700,5648,5546,5497,5448,5400,5353,5307,5262,5262,5262,5217,5217,5173,5130,5088,5005,4965,4886,4736,4527,4275,4132,3946,3754,3600,3420,3310,3257,3240,3275,3292,3346,3478,3665,0,4132,4429,4736,5088,5307,5448,5546,5648,5754,5863,5977,6095,6219,6347,6480,6620,6692,6765,6840,6917,6996,7076,6996,7076,7076,7076,6996,6996,6996,6996,0,0,2513,2513,2513,2513,2503,2492,2492,2492,2492,2482,2472,2472,2472,2463,2463,2472,2472,2482,2482,2492,2503,2513,2534,2544,2587,2620,2677,2736,2786,2837,2890,2946,3018,3328,0,0,0,5088,5217,5262,5262,5262,5307,5262,5262,5217,5173,5130,5088,5005,4965,4886,4810,4736,4629,4527,4397,4305,4217,4132,4077,4024,3998,3972,3946,3872,3754,3621,0,0,3078,2904,2761,2736,0,0,2786,2811,2824,2824,2811,2811,2798,2773,2761,2748,2736,2712,2712,2700,2688,2677,2665,2654,2642,2642,2631,2620,2609,2598,2598,2609,2598,2598,2620,2631,2654,2677,2712,2761,2824,2877,0,3018,3078,3157,3257,3346,3439,3518,3559,3621,3686,3777,3800,3824,3848,3848,3848,3872,3848,3848,3848,3848,3848,0,0,0,0,0,0,0,0,0,0,0,0,0,0,0,0,0,0,0,0,0,0,0,2824,2824,2837,2837,2824,2837,2824,2824,2837,0,0,0,0,0,0,0,0,0,0,0,0,0,0,0,0,0,0,0,0,0,1575,1575,1575,1571,1567,1563,1559,1555,1547,1535,1528,1520,1513,1509,1502,1494,1491,1494,1498,1498,1502,1505,0,0,0,0,0,1505,1502,1502,1498,1502,1502,1505,1509,1513,1516,1520,1524,1528,1531,1535,1539,1543,1547,1551,1555,1567,1575,1587,1603,1624,1633,1687,1827,0,0,0,2168,2231,2280,2280,2289,2289,2297,2306,2306,2314,2314,2323,2332,2341,2350,2350,2359,2368,2377,2386,2395,2405,2405,2405,2405,2405,2405,2395,2395,2386,2377,2368,2359,2350,2341,2332,2323,2323,2314,2314,2306,2306,2297,2297,2297,2289,2280,2272,2263,2255,2247,2231,2223,2207,2199,2191,2175,2168,2160,2153,2145,2145,2138,2138,2138,2138,2130,2123,2123,2123,2116,2116,2108,2101,2101,2094,2094,2094,2094,2101,2101,2101,2101,2101,0,0,0,1136,1134,1134,1134,1134,1134,1132,1132,1132,1132,1132,1132,0,0,0,0,0,0,0,1843,1849,1860,1866,1877,1888,1900,1912,1924,1936,1942,1948,1954,1961,1961,1967,1973,1980,1986,1992,1999,2005,2012,2019,2025,2025,2025,2025,2025,2025,2025,2019,2012,1999,1986,1973,1967,1967,1967,1973,1973,1980,1986,1992,0,2012,2012,2005,2005,1992,1986,1980,1980,1973,1961,1948,1942,1936,1930,1930,1924,1918,1918,1918,1918,1924,1930,1942,1942,1948,1954,1961,0,0,0,0,0,0,0,0,0,0,0,0,0,0,0,0,0,0,0,0,0,0
3157,3141,3141,3141,3141,3141,3141,3141,3157,3157,3173,3190,3190,3206,3240,3257,3275,3292,3328,3364,3401,3420,3439,3478,3498,3518,3538,3559,3579,3600,3621,3643,3686,3686,3709,3731,3754,3754,3777,3800,3800,3848,3896,3998,4077,4160,4275,4397,4527,4664,4772,4810,4772,4736,4664,4594,4560,4560,4560,4527,4594,4629,4629,4664,4700,4700,4700,4736,4736,4700,4664,4664,4664,4664,4594,4629,4629,4629,4594,4594,4594,4594,4629,4629,4594,4560,4527,4494,4494,4461,4461,4429,4429,4366,4366,4336,4336,4305,4275,4275,4305,4336,4461,4527,4629,4810,4965,5217,5400,5648,5808,5977,6095,6156,6156,6219,6219,6156,6095,6036,5920,5920,5808,5863,5808,5808,5754,5700,5597,5497,5497,5448,5353,5307,5262,5262,5262,5307,5262,5262,5217,5173,5130,5046,4965,4886,4594,4366,4217,0,3824,3643,3459,3346,3257,3240,3257,3275,3328,3478,3665,3872,4104,4397,4736,5130,5307,5448,5546,5648,5700,5863,5977,6036,6156,6282,6413,6549,6620,6692,6765,6840,6917,6996,6996,6996,6996,6996,6996,6996,6996,6996,6917,0,2513,2513,2513,2503,2503,2492,2482,2492,2482,2482,2472,2463,2463,2463,2463,2463,2472,2482,2492,2503,2513,2523,2544,2576,2609,2665,2736,2786,2837,2904,2960,3003,3109,0,0,0,0,5088,5173,5262,5262,5262,5307,5262,5262,5217,5173,5130,5088,5046,4965,4886,4810,4700,4594,4527,4397,4336,4246,4188,4104,4077,4024,4024,3972,3946,3824,3709,3538,0,3141,0,0,2736,0,0,0,2837,2863,2850,2837,2824,2798,2786,2761,2748,2736,2724,2724,2712,2700,2677,2665,2654,2642,2642,2620,2609,2598,2587,2587,2587,2576,2565,2587,2587,2598,2620,2642,2677,2724,2773,2850,0,2989,3063,3190,3292,3401,3478,3538,3600,3665,3754,3800,3824,3872,3872,3872,3872,3848,3872,3872,3872,3848,0,0,0,0,0,0,0,0,0,0,0,0,0,0,0,0,0,0,0,0,0,0,0,2811,2811,2811,2824,2824,2824,2824,2824,2837,0,0,0,0,0,0,0,0,0,0,0,0,0,0,0,0,0,0,0,0,0,1571,1575,1575,1571,1567,1563,1559,1555,1547,1539,1528,1524,1516,1509,1502,0,0,0,0,1498,1498,0,0,0,0,0,0,0,0,0,0,0,0,0,1509,1513,1516,1520,1524,1528,1531,0,0,0,1547,1551,1555,1563,1575,1587,1603,0,1629,0,0,0,0,2145,2199,2239,2280,2280,2289,2297,2297,2306,2314,2314,2323,2323,2332,2341,2350,2359,2359,2368,2377,2386,2395,2395,2405,2405,2405,2405,2395,2395,2386,2377,2377,2368,2359,2350,2341,2332,2323,2314,2314,2314,2306,2306,2306,2297,2297,2289,2289,2280,2272,2263,2247,2239,2223,2215,2199,2191,2183,2168,2160,2153,2153,2145,2138,2138,2138,2138,2130,2123,2123,2123,2116,2108,2108,2101,2101,2094,2094,2094,2094,2101,2101,2101,2101,2101,0,0,0,1134,1134,1134,1134,1134,1132,1130,1130,1130,1132,1130,1130,0,0,0,0,0,0,0,1849,1860,1866,1871,1877,1888,1900,1912,1924,1930,1942,1948,1954,1954,1961,1961,1967,1973,1980,1986,1992,1999,2005,2012,2019,2025,2025,2025,2025,2025,2025,2019,2012,1992,1986,1973,1967,1967,1967,1967,1967,1980,1986,1999,0,2019,2019,2012,2012,1999,1992,1986,1986,1973,1967,1954,1948,1936,1936,1930,1930,1924,1918,1918,1918,1924,1930,1936,1942,1942,1954,1954,0,0,0,0,0,0,0,0,0,0,0,0,0,0,0,0,0,0,0,0,0,0
3141,3125,3141,3141,3125,3125,3141,3125,3141,3157,3157,3173,3190,3206,3240,3257,3275,3292,3310,3346,3383,3401,3420,3439,3459,3478,3498,3518,3538,3559,3559,3600,3621,3643,3643,3665,3665,3686,3686,3686,3709,3709,3777,3848,3921,3998,4160,4275,4429,4594,4736,4810,4772,4736,4664,4594,4560,4527,4527,4527,4560,4560,4560,4594,4594,4629,4629,4629,4629,4594,4594,4594,4560,4527,4494,4494,4494,4494,4461,4461,4429,4461,4461,4461,4461,4429,4429,4397,4397,4366,4397,4397,4397,4336,4336,4305,4305,4275,4275,4246,4246,4305,4397,4461,4594,4736,4886,5088,5307,5546,5754,5920,6036,6156,6219,6219,6219,6156,6095,6036,5977,5920,5920,5863,5863,5863,5808,5754,5597,5597,5546,5448,5400,5353,5307,5307,5307,5353,5307,5353,5307,5262,5173,5130,5088,4965,4700,4429,4246,0,3872,3665,3478,3346,3257,3240,3240,3257,3310,3439,3621,3848,4077,4366,4700,5130,5307,5448,5546,5597,5700,5808,5920,5977,6095,6219,6282,6413,6480,6620,6692,6765,6840,6917,6917,6996,6917,6996,6996,6917,6917,6917,6917,2503,2503,2513,2503,2503,2492,2482,2482,2482,2492,2482,2472,2472,2472,2463,2472,2472,2472,2482,2492,2513,2534,2544,2576,2609,2654,2712,2773,2850,2904,2960,3003,3063,0,0,0,0,0,5088,5173,5217,5262,5262,5262,5262,5262,5217,5173,5173,5088,5046,4965,4886,4810,4736,4594,4527,4429,4336,4246,4188,4132,4077,4050,4024,4024,3972,3848,3731,3621,0,0,0,0,0,0,0,0,0,0,0,0,0,0,0,2773,2761,2748,2736,2724,2712,2700,2688,2688,2677,2665,2654,2598,2534,2472,2433,0,0,2414,2377,2386,0,0,2482,2513,2523,2565,2598,2700,2761,2850,2932,3078,3240,3346,0,3498,3600,3643,3754,3800,3848,3872,3872,3896,3896,3872,3872,3896,3872,3872,0,0,0,0,0,0,0,0,0,481,481,481,0,0,0,0,0,0,0,0,0,0,0,2798,2811,2811,2811,2811,2824,2824,2824,2824,0,0,0,0,0,0,0,0,0,0,0,0,0,0,0,0,0,0,0,0,0,0,1575,1575,1571,1571,1563,1563,1555,1551,1539,1531,1524,1520,1513,1505,0,0,0,0,590,590,590,590,590,590,590,590,0,0,0,0,0,0,0,0,0,0,0,0,0,0,0,0,0,0,0,0,0,1571,1583,1591,1612,1616,0,0,0,0,2183,2223,2255,2289,2280,2289,2297,2306,2314,2314,2323,2323,2332,2341,2350,2359,2359,2368,2368,2377,2386,2395,2395,2395,2395,2395,2395,2386,2386,2386,2377,2368,2359,2350,2341,2341,2332,2323,2314,2314,2314,2306,2306,2306,2297,2297,2289,2289,2280,2272,2263,2255,2239,2223,2215,2199,2191,2183,2175,2168,2160,2153,2145,2138,2138,2138,2130,2130,2123,2123,2123,2116,2108,2108,2101,2101,2094,2094,2094,2094,2101,2101,2101,2101,2101,0,0,0,1136,1134,1134,1132,1134,1132,1130,1130,1130,1130,1128,1130,0,0,0,0,0,0,0,1860,1866,1871,1877,1883,1888,1906,1912,1924,1930,1936,1942,1948,1954,1954,1961,1961,1967,1973,1980,1986,1992,1999,2012,2019,2019,2019,2019,2019,2025,2019,2019,2005,1992,1980,1973,1961,1961,1967,1967,1967,1980,1986,1999,0,2019,2025,2019,2019,2005,1999,1992,1992,1980,1973,1961,1954,1942,1936,1936,1930,1924,1918,1918,1918,1918,1924,1924,1930,1936,1942,1948,1954,0,0,0,0,0,0,0,0,0,0,0,0,0,0,0,0,0,0,0,0,0
3141,3125,3125,3125,3125,3125,3125,3125,3141,3141,3157,3173,3190,3206,3223,3240,3275,3292,3328,3346,3364,3383,3401,3420,3439,3459,3478,3478,3498,3518,3538,3559,3579,3579,3600,3600,3600,3621,3621,3621,3621,3643,3686,3754,3824,3921,4050,0,0,4560,4700,4810,4772,4772,4736,4664,4629,4560,4560,4527,4527,4494,4527,4527,4527,4560,4560,4560,4594,4594,4560,4560,4527,4494,4461,4429,4429,4429,4397,4366,4366,4366,4366,4366,4336,4336,4336,4305,4336,4305,4366,4366,4336,4336,4305,4305,4305,4275,4246,4217,4217,4275,4366,4429,4527,4664,4810,5005,5262,5497,5700,5863,5977,6095,6095,6219,6219,6156,6095,5977,5920,5863,5863,5863,5808,5863,5808,5754,5700,5597,5546,5497,5497,5400,5353,5353,5353,5353,5353,5400,5400,5307,5262,5217,5130,5046,4736,4461,4305,4104,3896,3709,3498,3346,3240,3223,3223,3240,3310,3420,3579,3777,3998,4275,4629,5005,5217,5400,5546,5597,5648,5754,5863,5920,6036,6095,6219,6282,6347,6480,6549,6692,6765,6917,6840,6917,6917,6996,6996,6917,6917,6840,0,2513,2503,2503,2503,2503,2492,2482,2472,2482,2492,2482,2482,2472,2472,2472,2472,2472,2482,2482,2503,2513,2534,2555,2598,2620,2677,2736,2811,2890,2946,2989,3048,3078,0,0,0,0,0,5173,5217,5217,5217,5262,5262,5262,5217,5217,5173,5173,5130,5046,4965,4886,4810,4736,4629,4527,4429,4336,4246,4217,4160,4077,4077,4050,4024,3998,0,0,0,0,0,0,0,614,614,614,614,614,0,0,0,0,0,0,2773,2773,2748,2748,2748,2736,2724,2712,2712,2700,2677,2665,0,0,0,0,0,0,0,0,0,0,0,0,0,0,2359,0,0,0,0,0,0,3078,3206,0,3459,3559,3621,3731,3800,3848,3872,3872,3896,3896,3896,3896,3896,3896,3896,0,0,0,0,0,0,0,481,481,480,480,480,0,0,0,0,0,0,0,0,0,0,0,0,2798,2798,2798,2798,2811,2811,2824,0,0,0,0,0,0,0,0,0,0,0,0,0,0,0,0,0,0,0,0,0,0,0,0,1579,1575,1571,1567,1563,1559,1555,1543,1539,1531,1524,0,0,0,0,590,590,590,590,590,590,590,590,590,590,591,591,591,591,0,0,0,0,0,0,0,0,0,0,0,0,0,0,0,0,0,0,0,0,0,0,0,0,0,0,2215,2247,2272,2289,2289,2289,2306,2306,2314,2323,2323,2332,2332,2341,2350,2359,2359,2368,2368,2377,2377,2386,2395,2395,2395,2395,2386,2386,2386,2377,2368,2359,2359,2350,2341,2332,2332,2323,2323,2314,2306,2306,2306,2306,2297,2297,2297,2289,2280,2272,2263,2255,2239,2231,2215,2207,2191,2183,2175,2168,2160,2153,2145,2138,2138,2138,2130,2130,2123,2123,2116,2116,2108,2108,2101,2101,2094,2094,2094,2094,2094,2101,2101,2094,2094,0,0,0,1136,1134,1134,1132,1132,1132,1128,1128,1128,1128,1128,1128,0,0,0,0,0,0,0,1866,1866,1871,1877,1883,1894,1900,1912,1918,1930,1936,1942,1948,1948,1948,1954,1954,1961,1967,1973,1980,1986,1999,2005,2012,2019,2019,2019,2019,2019,2019,2012,2005,1992,1980,1967,1961,1961,1961,1967,1967,1980,1992,1999,0,2025,2032,2025,2019,2012,2005,1999,1999,1986,1980,1967,1961,1948,1942,1936,1930,1924,1918,1918,1918,1918,1918,1924,1930,1930,1936,1936,1942,0,0,0,0,0,0,0,0,0,0,0,0,0,0,0,0,0,0,0,0,0
3141,3125,3125,3125,3125,3125,3125,3125,3125,3141,3157,3173,3190,3206,3223,3240,3275,3292,3310,3328,3346,3364,3383,3401,3420,3420,3439,3459,3459,3478,3498,3518,3538,3538,3559,3559,3538,3559,3559,3538,3538,3559,3579,3643,3709,3777,3921,4077,4305,0,4700,4810,0,4772,4772,4700,4664,4629,4560,4560,4527,4527,4527,4527,4527,4527,4527,4527,4527,4527,4527,4494,4494,4461,4397,4397,4397,4366,4336,4305,4305,4305,4336,4336,4305,4305,4275,4275,4305,4305,4336,4336,4336,4305,4305,4305,4305,4275,4275,4246,4217,4275,4336,4429,4527,4629,4772,4965,5217,5448,5648,5808,5920,5977,6095,6219,6156,6095,6036,5920,5920,5808,5808,5808,5808,5808,5808,5754,5700,5648,5597,5546,5497,5448,5400,5353,5353,5400,5448,5448,5448,5400,5353,5262,5217,5088,4810,4560,4336,4132,3946,3731,3518,3364,3257,3206,3206,3223,3292,3383,3538,0,3921,4217,4560,4925,5130,5353,5497,5546,5597,5700,5808,5863,5977,6036,6095,6156,6282,6413,6480,6620,6692,6765,6840,6840,6917,6840,6549,6840,6840,0,0,2503,2503,2503,2503,2492,2482,2472,2472,2482,2492,2482,2482,2482,2482,2472,2472,2472,2482,2482,2503,2513,2534,2565,2609,2654,2700,2761,2850,2932,2974,3018,3063,3094,0,0,0,0,0,5217,5217,5217,5217,5217,5262,5262,5217,5217,5173,5173,5130,5046,5005,4925,4848,4736,4629,4560,4429,4336,4275,4217,4132,4077,4050,4050,4024,4024,0,0,0,0,0,0,613,613,613,614,613,613,613,0,0,0,0,0,2786,2773,2761,2761,2761,2761,2748,2748,2736,2724,0,0,0,0,0,0,0,0,0,0,0,0,0,0,2160,2199,2255,2314,0,0,0,0,0,0,3125,3257,3383,3498,3600,3709,3800,3848,3872,3872,3872,3896,3896,3896,3896,3896,3872,0,0,0,0,0,0,481,481,480,480,480,480,480,480,481,481,481,482,482,482,0,0,0,0,0,0,2798,2798,2811,2811,0,0,0,0,0,0,0,0,0,0,0,0,0,0,0,0,0,0,0,0,0,0,0,0,0,0,1579,1575,1571,1567,1563,1559,1551,1543,1535,1531,0,0,0,590,590,590,590,590,590,590,590,590,590,590,590,591,591,591,592,0,0,0,0,0,0,0,0,0,0,0,0,0,0,0,0,0,0,0,0,0,0,0,0,0,0,2272,2280,2289,2297,2306,2306,2314,2314,2323,2332,2332,2341,2350,2359,2359,2368,2368,2368,2377,2377,2386,2386,2386,2386,2386,2386,2377,2377,2368,2368,2359,2359,2350,2341,2332,2332,2323,2323,2314,2306,2306,2306,2306,2306,2297,2297,2289,2280,2272,2263,2255,2247,2231,2223,2207,2199,2183,2175,2168,2160,2153,2145,2138,2138,2138,2130,2130,2123,2123,2116,2116,2108,2108,2101,2101,2094,2094,2094,2094,2101,2101,2101,2094,2094,0,0,0,1134,1134,1132,1132,1132,1130,1128,1128,1128,1128,1125,1125,0,0,0,0,0,0,0,1866,1871,1877,1877,1883,1894,1906,1912,1918,1930,1936,1942,1948,1948,1948,1954,1954,1954,1961,1973,1980,1986,1992,2005,2012,2019,2019,2019,2019,2019,2019,2012,2005,1992,1980,1973,1961,1961,1961,1967,1967,1980,1992,2005,0,2032,2039,2032,2025,2019,2012,2005,2005,1992,1980,1973,1961,1954,1948,1942,1936,1924,1924,1918,1918,1912,1912,1918,1918,1924,1930,1924,1936,0,0,0,0,0,0,0,0,0,0,0,0,0,0,0,0,0,0,0,0,0
3141,3125,3141,3141,3125,3125,3125,3141,3141,3141,3157,3173,3190,3206,3223,3240,3275,3292,3310,3328,3346,3364,3383,3401,3420,3420,3439,3439,3459,3478,3478,3498,3518,3518,3518,3518,3518,3498,3498,3498,3478,3498,3518,3538,3579,3665,3824,0,4217,0,0,4848,4886,4848,4848,4810,4736,4700,4664,4629,4629,4594,4594,4594,4594,4594,4594,4594,4594,4594,4594,4560,4527,4494,4461,4429,4397,4366,4336,4336,4305,4305,4305,4336,4336,4305,4275,4305,4305,4275,4305,4336,4336,4305,4305,4305,4305,4305,4275,4275,4246,4275,4336,4429,4494,4594,4736,4925,5130,5353,5597,5754,5808,5920,6036,6156,6156,6095,6036,5863,5863,5808,5754,5808,5754,5808,5808,5808,5754,5700,5648,5597,5597,5546,5497,5448,5400,5448,5448,5497,5497,5448,5400,5353,5262,5173,4886,4629,4429,4217,4024,3777,3559,3383,3257,3190,3190,3206,3257,3328,3478,0,3848,4132,4461,4848,5088,5262,5448,5497,5597,5700,5754,5808,5863,5920,5977,5977,6156,6282,6347,6413,6549,6620,6692,6765,6840,0,0,0,0,0,0,2492,2492,2492,2492,2492,2482,2472,2463,2472,2482,2482,2482,2482,2482,2472,2472,2472,2482,2482,2492,2513,2544,2576,2620,2665,2736,2798,2890,2960,3003,3048,3094,3125,0,0,0,0,0,5173,5217,5217,5217,5217,5262,5262,5217,5217,5173,5173,5130,5088,5005,4965,4886,4810,4664,4560,4461,4366,4275,4217,4132,4077,4050,4024,4024,3998,0,0,0,0,0,613,613,613,613,613,613,613,613,613,0,0,0,0,0,2786,2773,2773,2773,2773,2773,2773,0,0,0,0,0,0,0,0,0,0,0,0,0,0,0,2012,0,2045,2116,2160,2239,0,0,0,0,0,2989,3157,0,3439,3538,3665,3777,3824,3848,3872,3872,3872,3896,3896,3896,3896,3896,0,0,0,0,0,0,481,480,480,480,480,480,480,480,480,481,481,482,482,482,482,0,0,0,0,0,0,0,0,0,0,0,0,0,0,0,0,0,0,0,0,0,0,0,0,0,0,0,0,0,0,0,0,0,0,0,1583,1579,1575,1571,1567,1563,1555,1551,1547,1543,0,0,590,590,590,590,590,590,590,590,590,590,590,590,591,591,591,591,592,592,0,0,0,0,0,0,0,0,0,0,0,0,0,0,0,0,0,0,0,0,0,0,0,0,0,2289,2289,2289,2297,2306,2306,2314,2323,2323,2332,2341,2341,2350,2359,2359,2368,2368,2377,2377,2377,2386,2386,2386,2386,2386,2377,2377,2377,2368,2359,2359,2350,2350,2341,2332,2323,2323,2323,2314,2306,2306,2306,2306,2306,2297,2297,2289,2280,2280,2263,2255,2247,2231,2223,2207,2199,2191,2175,2168,2160,2153,2145,2138,2138,2138,2130,2123,2123,2123,2116,2116,2108,2108,2101,2101,2101,2094,2094,2094,2094,2101,2094,2094,2094,0,0,0,0,1132,1132,1132,1132,1130,1128,1128,1128,1128,1125,0,0,0,0,0,0,0,0,1871,1871,1877,1883,1888,1900,1906,1912,1918,1930,1936,1942,1948,1948,1948,1948,1954,1954,1961,1967,1980,1986,1992,2005,2012,2019,2025,2025,2025,2025,2025,2019,2012,1999,1986,1973,1961,1961,1961,1967,1973,1980,1999,2012,2025,2039,2039,2039,2039,2025,2019,2012,2005,1999,1986,1973,1967,1954,1948,1942,1936,1930,1924,1918,1918,1912,1912,1912,1918,1918,1924,1924,1930,0,0,0,0,0,0,0,0,0,0,0,0,0,0,0,0,0,0,0,0,0
3141,3141,3141,3141,3125,3141,3141,3141,3141,3157,3157,3173,3190,3206,3223,3240,3257,3292,3310,3328,3346,3346,3364,3383,3401,3401,3420,3439,3439,3459,3459,3478,3478,3498,3498,3498,3478,3478,3478,3459,3439,3439,3478,3478,3518,0,0,0,0,0,4736,4925,4965,0,4925,4848,4848,4810,4772,4700,4700,4700,4664,4664,4664,4664,4664,4664,4664,4664,4664,4629,4594,4560,4494,4461,4429,4366,4336,4336,4305,4305,4336,4336,4336,4305,4275,4275,4275,4275,4275,4305,4336,4305,4305,4336,4336,4336,4336,4305,4305,4305,4366,4429,4527,4594,4700,4886,5088,5307,5546,5700,5754,5863,5920,6095,6095,6095,6036,5920,5920,5808,5808,5808,5808,5808,5863,5863,5754,5754,5700,5648,5648,5546,5546,5497,5497,5497,5497,5546,5546,5497,5448,5353,5307,5217,4965,4736,4527,4336,4132,3872,3621,3439,3275,3190,3157,3173,3223,3275,3401,3559,3777,4050,4366,4772,5005,5262,5400,5448,5546,5648,5700,5700,5754,5808,5808,5808,5754,6036,5977,5808,5353,0,6549,6620,0,0,0,0,0,0,0,2492,2492,2492,2492,2492,2482,2463,2463,2472,2492,2482,2482,2482,2482,2472,2482,2472,2472,2482,2492,2513,2544,2587,2642,2688,2761,2824,2918,3003,3033,3078,3109,3141,0,0,0,0,0,5130,5173,5217,5217,5217,5262,5262,5262,5217,5217,5217,5173,5130,5088,5046,4965,4848,4736,4629,4494,4366,4305,4188,4132,4077,4050,4024,4024,4024,0,0,0,0,611,611,611,611,611,612,612,613,611,0,0,0,0,0,0,2786,2786,2786,2798,2786,2798,2798,2798,0,0,0,0,0,0,0,0,1877,1849,1838,0,0,0,1912,1924,0,1986,2039,2094,0,0,2386,2534,0,2837,3003,0,0,3459,3600,3777,3824,3848,3872,3872,3896,3896,3896,3896,3896,0,0,0,0,0,480,0,480,480,480,479,479,479,480,480,480,481,481,481,482,482,482,0,0,0,0,0,0,0,0,0,0,0,0,0,0,0,0,0,0,0,0,0,0,0,0,0,0,0,0,0,0,0,0,0,0,0,0,1583,1579,1575,1571,1571,1567,1563,1555,0,0,0,590,590,589,590,590,590,589,590,590,590,590,590,591,591,591,591,592,593,593,0,0,0,0,0,0,0,0,0,0,0,0,0,0,0,0,0,0,0,0,0,0,0,0,0,2289,2297,2297,2306,2306,2314,2323,2323,2332,2341,2350,2350,2359,2368,2368,2368,2377,2377,2386,2386,2386,2386,2386,2386,2377,2377,2377,2368,2359,2350,2350,2341,2341,2332,2323,2323,2314,2314,2306,2306,2306,2306,2306,2297,2297,2289,2289,2280,2272,2255,2247,2231,2223,2215,2199,2191,2183,2168,2160,2153,2145,2138,2138,2130,2130,2123,2123,2123,2116,2116,2108,2108,2101,2101,2101,2094,2094,2094,2094,2101,2094,2094,2094,0,0,0,1134,1134,1132,1132,1132,1132,1128,1128,1128,1128,1128,0,0,0,0,0,0,0,0,1871,1871,1877,1883,1888,1900,1906,1912,1924,1930,1936,1942,1948,1948,1948,1948,1948,1954,1961,1967,1980,1986,1999,2005,2019,2025,2025,2032,2032,2032,2025,2025,2019,2005,1986,1973,1967,1967,1967,1973,1973,1986,1999,2019,2032,2045,2045,2045,2039,2032,2025,2019,2012,1999,1992,1980,1973,1961,1954,1948,1942,1936,1930,1924,1924,1918,1918,1918,1918,1924,1924,1924,1924,0,0,0,0,0,0,0,0,0,0,0,0,0,0,0,0,0,0,0,0,0
3141,3141,3141,3157,3141,3141,3141,3141,3141,3157,3157,3173,3190,3190,3223,3240,3240,3275,3292,3310,3328,3346,3364,3364,3383,3401,3420,3420,3439,3439,3439,3459,3478,3478,3478,3478,3459,3459,3439,3439,3420,3420,3439,0,0,0,3709,3946,0,0,0,4925,4965,5005,4965,4925,4925,4886,4848,4848,4810,4810,4772,4736,4736,4736,4736,4736,4736,4736,4700,4700,4664,4629,4594,4527,4494,4429,4397,4397,4366,4366,4366,4366,4366,4336,4305,4275,4275,4275,4246,4275,4305,4305,4336,4366,4366,4366,4366,4366,4336,4336,4397,4461,4527,4629,4736,4886,5046,5262,5448,5597,5700,5808,5977,6095,6156,6156,6095,5977,5977,5977,5863,5920,5863,5920,5920,5920,5808,5754,5700,5700,5700,5648,5597,5546,5546,5546,5546,5546,5597,5546,5448,5400,5353,5262,5046,4848,4629,4461,4217,3972,3709,3478,3292,3206,3157,3141,3173,3206,3310,3459,0,0,4275,4629,4886,5217,5400,5400,5497,5597,5597,5648,5700,5754,5700,5648,5808,5920,4772,0,0,0,0,2631,2576,2555,2555,2565,2555,2544,2534,2492,2492,2482,2492,2482,2472,2472,2463,2482,2492,2482,2482,2492,2492,2482,2482,2482,2482,2482,2503,2523,2555,2598,2665,2724,2798,2863,2946,3033,3063,3109,3157,3173,0,0,0,0,0,5088,5173,5217,5217,5217,5262,5262,5262,5262,5217,5217,5217,5173,5173,5130,5046,4965,4810,4664,4527,4397,4305,4188,4104,4050,4024,4024,3998,3998,0,0,0,0,0,607,608,608,609,610,610,611,611,611,0,0,0,0,0,2798,2798,2798,2811,2811,2811,2824,2824,0,0,0,0,0,0,0,0,0,0,1764,1784,1795,1821,0,1838,1854,1877,1900,1948,2005,2130,2239,2453,2598,2773,2946,0,0,0,3579,3777,3824,3848,3872,3872,3872,3896,3896,3896,0,0,0,0,0,480,0,479,479,479,479,478,478,479,479,479,480,480,481,481,482,482,482,482,0,0,0,0,0,0,0,0,0,0,0,0,0,0,0,0,0,0,0,0,0,0,0,0,0,0,0,0,0,0,0,0,0,0,0,1587,1583,1579,1579,1575,1571,1567,1563,0,0,0,590,589,589,589,589,589,589,590,590,590,590,590,590,591,591,592,592,593,593,0,0,0,0,0,0,0,0,0,0,0,0,0,0,0,0,0,0,0,0,0,0,0,0,0,2297,2297,2297,2306,2306,2314,2323,2332,2332,2341,2350,2350,2359,2359,2368,2377,2377,2377,2386,2395,2395,2386,2386,2386,2377,2377,2377,2359,2359,2350,2350,2341,2332,2323,2323,2314,2314,2314,2306,2306,2297,2306,2297,2297,2297,2289,2280,2280,2272,2255,2247,2239,2223,2215,2199,2191,2183,2168,2160,2153,2145,2138,2138,2130,2130,2123,2123,2123,2116,2116,2108,2108,2108,2101,2101,2101,2101,2094,2094,2101,2101,2094,2094,0,0,1134,1134,1134,1134,1132,1132,1132,1128,1128,1128,1128,1128,0,0,0,0,0,0,0,0,1871,1877,1883,1888,1894,1900,1912,1918,1924,1930,1936,1942,1948,1948,1948,1948,1954,1954,1961,1967,1980,1986,1999,2005,2019,2025,2032,2032,2039,2039,2032,2032,2025,2005,1992,1980,1973,1973,1973,1973,1973,1986,2005,2019,2032,2045,2045,2052,2045,2039,2032,2019,2012,2005,1992,1980,1973,1961,1954,1948,1948,1942,1936,1930,1930,1924,1924,1918,1924,1924,1924,1930,1930,1930,0,0,0,0,0,0,0,0,0,0,0,0,0,0,0,0,0,0,0,0
3141,3141,3141,3157,3141,3141,3141,3141,3141,3157,3157,3173,3173,3190,3206,3223,3240,3257,3275,3292,3310,3328,3346,3364,3364,3383,3401,3420,3420,3439,3439,3459,3459,3478,3478,3478,3459,3439,3439,3420,3420,3420,3439,3478,0,0,0,0,0,0,0,0,4886,4925,4925,4925,4925,4886,4886,4848,4848,4848,4848,4848,4848,4848,4810,4810,4810,4810,4772,4772,4736,4736,4700,4664,4594,4560,4527,0,0,0,4429,4429,4397,4366,4336,4305,4275,4246,4246,4275,4305,4336,4366,4397,4397,4397,4429,4429,4429,4397,4429,4494,4560,4629,4700,4848,5005,5173,5400,5546,5648,5754,5920,6036,6156,6219,6156,6036,6036,6036,6036,5977,5977,5977,5920,5863,5808,5754,5700,5700,5700,5700,5648,5597,5546,5546,5546,5597,5597,5546,5497,5448,5353,5307,5130,4925,4736,4527,4275,4024,3754,3518,3328,3206,3141,3125,3141,3190,3275,3401,3579,3824,0,4527,4848,5173,5448,5400,5448,5546,5597,5597,5648,5597,5497,5400,5546,5130,0,0,0,0,2665,2587,2565,2544,2544,2544,2544,2534,2513,2482,2482,2482,2482,2482,2472,2472,2463,2482,2492,2482,2492,2492,2492,2492,2492,2482,2482,2492,2513,2534,2565,2620,2688,2748,2824,2904,2989,3063,3094,3125,3173,3190,0,0,0,0,0,5046,5173,5217,5217,5217,5262,5262,5262,5262,5262,5262,5262,5262,5262,5217,5173,5046,4886,4736,0,4429,4305,4188,4077,4024,3998,3998,3998,3998,0,0,0,0,604,604,605,606,607,608,609,609,610,611,611,612,0,0,0,0,2811,2811,2824,2811,2837,2850,2850,0,0,0,0,0,0,0,0,0,0,0,0,1784,1795,1795,1800,1811,1854,0,0,0,0,2215,2395,2523,2677,2863,0,0,0,3518,3754,3824,3848,3872,3872,3872,3896,3896,0,0,0,0,0,0,0,478,478,478,478,478,478,478,478,478,479,480,480,481,481,481,482,482,482,0,0,0,0,0,0,0,0,0,0,0,0,0,0,0,0,0,0,0,0,0,0,0,0,0,0,0,0,0,0,0,0,0,0,0,1591,1583,1587,1583,1583,1579,1575,1571,0,0,0,589,589,589,589,589,589,589,589,589,589,589,589,590,590,591,591,591,592,593,593,0,0,0,0,0,0,0,0,0,0,0,0,0,0,0,0,0,0,0,0,0,0,0,0,2297,2297,2297,2306,2306,2314,2323,2332,2332,2341,2350,2350,2359,2359,2368,2377,2377,2377,2386,2395,2395,2395,2386,2386,2386,2377,2377,2368,2350,2350,2341,2332,2332,2323,2314,2314,2314,2306,2306,2297,2297,2297,2297,2297,2289,2289,2280,2272,2263,2255,2247,2239,2223,2215,2207,2191,2183,2175,2160,2153,2145,2138,2138,2130,2130,2123,2123,2123,2116,2116,2116,2108,2108,2101,2101,2101,2101,2101,2094,2094,2094,2094,2094,0,0,1134,1134,1134,1132,1132,1132,1132,1130,1128,1130,1128,1128,0,0,0,0,0,0,0,0,1877,1883,1888,1894,1894,1906,1918,1924,1930,1936,1942,1942,1948,1948,1948,1948,1954,1954,1961,1967,1980,1986,1999,2012,2019,2032,2039,2039,2045,2039,2039,2039,2032,2012,1999,1986,1980,1973,1973,1973,1980,1986,2005,2019,2032,2045,2052,2052,2052,2039,2032,2025,2012,2005,1992,1980,1973,1967,1961,1954,1948,1942,1942,1936,1930,1930,1924,1924,1930,1930,1924,1930,1930,1930,0,0,0,0,0,0,0,0,0,0,0,0,0,0,0,0,0,0,0,0
3141,3141,3141,3157,3157,3141,3141,3141,3141,3141,3157,3157,3173,3173,3190,3206,3223,3240,3257,3275,3292,3310,3328,3346,3364,3364,3383,3401,3420,3439,3439,3459,3459,3459,3478,3478,3459,3439,3439,3420,3420,3401,3439,3478,0,0,3686,0,0,0,0,0,0,4810,4848,4886,4925,4925,4925,4925,4925,4965,4965,4925,4925,4925,4925,4925,4886,4848,4848,4810,4810,4772,0,0,0,0,0,0,0,0,0,4494,4461,4366,4366,4336,4275,4275,4275,4305,4305,4366,4397,4429,4429,4429,4461,4494,4461,4461,4461,4560,4629,4664,4736,4848,4965,5130,5307,5497,5597,5700,5863,6036,6095,6095,6095,6095,6095,6095,6036,6036,5977,5977,5920,5920,5863,5808,5754,5754,5754,5754,5754,5648,5648,5597,5597,5648,5648,5597,5497,5448,5400,5307,5173,5005,4810,4629,4366,4104,3800,3559,3346,3223,3141,3125,3141,3157,3223,3364,0,0,4077,4429,4772,5173,5448,5400,5400,5497,5597,5597,5648,5400,5088,4494,4132,0,0,0,2665,2609,2576,2555,2555,2534,2534,2534,2534,2523,2503,2482,2482,2482,2482,2482,2472,2472,2472,2482,2482,2492,2492,2503,2492,2492,2482,2492,2492,2503,2513,2544,2576,2631,2712,2773,2863,2932,3018,3078,3094,3141,3206,3240,0,3731,4188,0,0,5005,5130,5217,5217,5217,5262,5262,5262,5262,5262,5307,5307,5307,5307,5307,5262,5130,4925,4736,4594,4429,4305,4160,4050,3998,0,0,0,0,0,0,0,599,600,601,602,603,604,606,607,608,609,610,612,613,0,0,0,0,0,0,0,2837,2850,0,0,0,0,0,0,0,0,0,0,0,0,0,0,0,1774,1774,1779,1784,1790,1805,0,0,0,0,0,0,0,0,0,0,0,0,0,0,0,3848,3848,3872,0,0,0,0,0,0,0,0,478,477,477,477,477,477,477,477,477,478,478,479,479,480,481,481,482,482,482,0,0,0,0,0,0,0,0,0,0,0,0,0,0,0,0,0,0,0,0,0,0,0,0,0,0,0,0,0,0,0,0,0,0,0,1591,1587,1587,1587,1583,1583,1579,1575,0,0,0,588,588,588,587,587,588,588,588,588,588,588,589,589,589,590,590,591,591,0,0,0,0,0,0,0,0,0,0,0,0,0,0,0,0,0,0,0,0,0,0,0,0,0,2297,2289,2297,2297,2306,2306,2314,2323,2323,2332,2341,2341,2350,2359,2359,2368,2377,2377,2386,2395,2395,2395,2395,2386,2386,2386,2377,2377,2368,2359,2350,2341,2332,2323,2314,2314,2306,2306,2297,2297,2297,2289,2289,2297,2289,2280,2280,2280,2272,2263,2255,2247,2239,2223,2215,2207,2191,2183,2175,2160,2153,2145,2138,2138,2130,2130,2123,2123,2123,2116,2116,2116,2108,2108,2108,2101,2101,2101,2101,2101,2101,2101,2101,2101,0,0,0,0,1134,1132,1132,1132,1134,1130,1128,1130,1130,1130,0,0,0,0,0,0,0,0,1883,1883,1888,1894,1900,1912,1918,1924,1930,1942,1942,1948,1948,1948,1948,1948,1954,1954,1954,1967,1980,1986,1999,2012,2025,2032,2039,2045,2045,2045,2045,2039,2039,2019,2005,1992,1986,1980,1973,1980,1980,1986,2005,2019,2032,2045,2052,2059,2052,2045,2032,2025,2019,2005,1999,1980,1973,1967,1961,1954,1948,1948,1942,1942,1942,1936,1930,1936,1936,1936,1936,1936,1936,1936,0,0,0,0,0,0,0,0,0,0,0,0,0,0,0,0,0,0,0,0
3141,3141,3141,3141,3141,3125,3141,3141,3141,3141,3141,3157,3157,3173,3190,3206,3206,3223,3240,3257,3275,3292,3310,3328,3346,3364,3383,3383,3401,3420,3439,3439,3459,3459,3459,3478,3459,3459,3439,3439,3439,3439,3459,3498,0,3600,3709,3848,0,0,0,0,4629,4700,4772,4848,4886,4965,4965,5005,5005,5046,5088,5088,5088,5046,5005,5005,5005,4965,4965,4965,4925,0,0,0,0,0,0,0,0,0,0,4629,4560,4494,4429,4429,4397,4366,4366,4366,4397,4397,4461,4461,4494,4494,4527,4527,4527,4494,4527,4594,4629,4664,4736,4810,4925,5088,5262,5353,5497,5597,5754,5863,5920,5977,5977,5977,5977,5977,5920,5920,5920,5920,5920,5863,5808,5754,5754,5700,5754,5754,5754,5700,5648,5648,5597,5648,5648,5597,5497,5448,5400,5353,5262,5088,4925,4700,4461,4160,3848,3600,3383,3240,3141,3109,3125,3141,3190,3310,0,0,4024,4305,4736,0,0,5353,5400,5497,5546,5546,5597,5262,4736,4160,0,0,0,2598,2576,2555,2555,2544,2534,2523,2523,2523,2523,2513,2503,2482,2482,2482,2482,2482,2472,2472,2472,2472,2492,2482,2492,2503,2503,2492,2492,2492,2492,2503,2513,2544,2565,2642,2712,2798,2877,2946,3033,3094,3109,3157,3223,3257,0,3686,4132,0,0,4925,5130,5217,5217,5217,5262,5262,5307,5307,5307,5307,5307,5353,5353,5353,5307,5217,5005,4772,0,4429,4305,4160,3998,3972,0,0,0,0,0,0,595,595,596,597,598,599,601,603,604,605,607,609,611,612,0,0,0,0,0,0,0,0,0,0,0,0,0,0,0,0,0,0,0,0,0,0,0,0,1764,1764,1759,1764,1764,1779,1805,1843,0,0,0,0,0,0,0,0,0,0,0,0,0,0,0,0,0,0,0,0,0,0,0,477,477,477,476,476,476,476,476,476,476,477,478,478,479,480,481,481,482,482,482,0,0,0,0,0,0,0,0,0,0,0,0,0,0,0,0,0,0,0,0,0,0,0,0,0,0,0,0,0,0,0,0,0,0,0,0,1591,1591,1587,1587,1587,1583,0,0,0,0,586,586,587,587,587,587,587,587,587,587,587,587,588,589,589,590,590,591,0,0,0,0,0,0,0,0,0,0,0,0,0,0,0,0,0,0,0,0,0,0,0,0,0,2289,2289,2297,2297,2297,2306,2314,2314,2323,2332,2341,2341,2350,2359,2359,2368,2377,2386,2386,2395,2395,2405,2395,2395,2395,2395,2386,2377,2368,2359,2350,2341,2332,2323,2314,2306,2306,2297,2289,2289,2289,2280,2280,2289,2280,2280,2272,2272,2263,2263,2255,2239,2231,2223,2215,2199,2191,2183,2175,2168,2160,2153,2145,2138,2138,2130,2130,2123,2123,2123,2116,2116,2108,2108,2108,2101,2101,2101,2101,2101,2101,2101,2101,2101,0,0,0,0,1136,1134,1132,1132,1134,1132,1130,1130,1132,1130,0,0,0,0,0,0,0,0,1883,1883,1888,1894,1900,1912,1924,1930,1936,1942,1948,1948,1948,1954,1948,1948,1954,1954,1961,1967,1980,1986,1999,2012,2025,2039,2045,2045,2052,2052,2052,2045,2039,2025,2012,1999,1986,1980,1980,1980,1980,1986,2005,2019,2032,2039,2052,2059,2059,2045,2032,2025,2019,2005,1999,1980,1967,1961,1961,1954,1948,1942,1942,1942,1942,1942,1936,1936,1936,1942,1942,1942,1942,1942,0,0,0,0,0,0,0,0,0,0,0,0,0,0,0,0,0,0,0,0
3141,3141,3141,3141,3141,3125,3125,3141,3125,3141,3141,3141,3157,3157,3173,3190,3190,3206,3223,3240,3257,3275,3292,3310,3328,3346,3364,3383,3401,3420,3420,3439,3459,3459,3478,3478,3478,3459,3459,3459,3459,3459,3498,3538,3579,3643,3731,3872,4024,4188,4305,4429,4527,4594,4700,4772,4848,4925,4965,5046,5088,5130,5173,5173,5173,5130,5173,5130,5088,5088,5088,5088,5046,5088,5046,5046,5005,4965,5005,4925,4886,4848,4848,4810,4700,4629,4560,4560,4527,4527,4494,4494,4494,4494,4527,4560,4560,4560,4560,4560,4560,4527,4560,4594,4664,4664,4736,4810,4925,5046,5173,5307,5400,5448,5597,5700,5808,5863,5808,5808,5863,5808,5808,5808,5808,5808,5754,5754,5700,5648,5648,5648,5700,5700,5700,5648,5648,5648,5597,5648,5648,5597,5497,5448,5400,5400,5307,5173,5005,4772,4560,4246,3921,3665,3439,3257,3141,3109,3094,3109,3157,3257,0,0,0,0,4700,0,0,0,0,5448,5448,5353,5262,4848,4527,0,0,0,2665,2576,2565,2534,2534,2534,2523,2523,2513,2513,2513,2503,2492,2482,2482,2482,2482,2482,2472,2472,2472,2472,2482,2492,2492,2503,2503,2492,2492,2503,2503,2513,0,0,0,0,0,2811,0,2974,3048,3109,3125,3173,3240,3275,0,3665,4077,0,0,4886,5088,5217,5217,5217,5262,5307,5307,5307,5307,5353,5353,5353,5400,5400,5400,5262,5005,4810,0,4397,4275,4132,3972,3946,0,0,0,0,0,0,0,593,593,593,594,596,598,599,602,603,605,607,608,610,0,0,0,0,0,0,0,0,0,0,0,0,0,0,0,0,0,0,0,0,0,0,0,0,0,0,1739,1744,1739,1739,0,0,0,0,0,0,0,0,0,0,0,0,0,0,0,0,0,0,0,0,0,0,0,0,0,477,477,0,476,476,475,475,475,475,476,477,478,478,479,480,481,481,482,482,482,0,0,0,0,0,0,0,0,0,0,0,0,0,0,0,0,0,0,0,0,0,0,0,0,0,0,0,0,0,0,0,0,0,0,0,0,0,0,0,0,0,0,0,0,0,0,585,585,585,586,586,586,586,586,586,586,586,587,587,589,589,589,590,590,0,0,0,0,0,0,0,0,0,0,0,0,0,0,0,0,0,0,0,0,0,0,0,0,0,2280,2289,2297,2297,2297,2306,2306,2314,2323,2332,2332,2341,2341,2350,2359,2368,2377,2386,2395,2395,2405,2405,2405,2405,2395,2395,2386,2377,2368,2359,2350,2341,2332,2323,2314,2306,2297,2289,2289,2280,2280,2272,2272,2280,2272,2272,2263,2272,2263,2255,2247,2239,2231,2223,2215,2199,2191,2183,2175,2168,2160,2153,2145,2138,2138,2130,2130,2123,2123,2123,2116,2116,2116,2108,2108,2101,2101,2101,2101,2101,2108,2101,2108,2108,0,0,0,0,1136,1136,1134,1134,1134,1132,1130,1132,1132,1132,0,0,0,0,0,0,0,0,1883,1888,1894,1900,1906,1918,1924,1930,1942,1948,1948,1948,1948,1954,1954,1948,1954,1954,1961,1967,1980,1992,2005,2019,2032,2039,2052,2052,2059,2059,2052,2052,2045,2032,2019,2005,1992,1986,1980,1980,1980,1986,1999,2019,2025,2039,2052,2059,2052,2045,2032,2025,2019,2005,1999,1980,1967,1961,1961,1954,1948,1948,1948,1948,1948,1948,1948,1948,1948,1948,1948,1948,1948,1948,0,0,0,0,0,0,0,0,0,0,0,0,0,0,0,0,0,0,0,0
3125,3125,3141,3141,3141,3125,3125,3125,3125,3125,3141,3141,3141,3157,3157,3173,3190,3190,3223,3240,3257,3275,3292,3310,3328,3346,3364,3383,3401,3420,3420,3439,3439,3459,3478,3478,3478,3478,3478,3459,3478,3478,3518,3538,3579,3621,3709,3848,3998,4132,4246,4336,4429,4560,4629,4736,4810,4886,4965,5046,5130,5173,5217,5262,5262,5217,5217,5217,5173,5173,5173,5173,5173,5173,5130,5130,5130,5130,5130,5088,5005,5005,4965,4925,4886,4772,4736,4700,4700,4664,4664,4629,4629,4594,4629,4629,4594,4594,4594,4594,4594,4560,4560,4594,4629,4664,4700,4772,4848,4965,5088,5217,5262,5353,5497,5546,5648,5700,5700,5700,5700,5700,5754,5754,5700,5700,5648,5648,5597,5597,5597,5546,5597,5597,5597,5597,5597,5597,5597,5597,5648,5546,5497,5448,5400,5400,5353,5262,5130,4886,4629,4366,4024,3731,3478,3275,3141,3109,3109,3109,3141,3223,0,0,0,0,0,0,0,0,0,5217,5262,4965,5173,4925,0,0,0,2824,2598,2555,2534,2523,2523,2523,2513,2503,2503,2503,2492,2492,2492,2482,2482,2482,2482,2482,2472,2472,2472,2472,2482,2482,2482,2492,2503,2492,2503,2503,2503,0,0,0,0,0,0,0,0,2989,3063,3125,3125,3190,3257,3275,0,3665,4050,0,0,4848,5088,5217,5217,5262,5262,5307,5307,5353,5353,5353,5400,5400,5400,5448,5448,5307,5046,4810,0,4397,4275,4132,3946,3921,0,0,0,0,0,590,590,590,590,590,591,593,595,597,599,601,603,605,607,608,610,0,0,0,0,0,0,0,0,0,0,0,0,0,0,0,0,0,0,0,0,0,0,0,0,0,0,0,0,0,0,0,0,0,0,0,0,0,0,0,0,0,0,0,0,0,0,0,0,0,0,0,0,0,0,476,476,475,475,475,475,475,475,475,476,477,477,478,479,480,481,481,482,482,482,483,0,0,0,0,0,0,0,0,0,0,0,0,0,0,0,0,0,0,0,0,0,0,0,0,0,0,0,0,0,0,0,0,0,0,0,0,0,0,0,0,0,0,0,0,586,585,585,585,585,585,585,585,585,585,586,586,586,587,587,588,589,589,589,0,0,0,0,0,0,0,0,0,0,0,0,0,0,0,0,0,0,0,0,0,0,0,0,0,2280,2280,2289,2289,2289,2297,2306,2314,2314,2323,2332,2332,2341,2350,2359,2368,2377,2386,2395,2405,2414,2414,2414,2414,2405,2405,2395,2386,2368,2359,2350,2341,2332,2314,2306,2306,2297,2289,2280,2272,2272,2272,2272,2272,2272,2263,2263,2263,2255,2255,2247,2239,2231,2223,2215,2207,2191,2183,2175,2168,2160,2153,2153,2145,2138,2138,2130,2130,2123,2123,2116,2116,2116,2108,2108,2101,2101,2101,2101,2101,2101,2108,2108,2101,2108,0,0,0,1138,1136,1136,1136,1136,1134,1132,1134,1134,1132,0,0,0,0,0,0,0,0,1894,1900,1906,1906,1912,1924,1930,1936,1942,1948,1954,1954,1954,1954,1954,1954,1954,1954,1961,1973,1986,1992,2005,2019,2032,2045,2052,2059,2059,2059,2059,2052,2052,2039,2025,2005,1992,1986,1980,1980,1980,1986,1999,2012,2025,2032,2045,2052,2052,2045,2032,2025,2019,2005,1999,1986,1973,1961,1961,1954,1954,1954,1948,1954,1954,1954,1954,1954,1954,1954,1954,1954,1948,0,0,0,0,0,0,0,0,0,0,0,0,0,0,0,0,0,0,0,0,0
3125,3125,3125,3125,3125,3109,3125,3125,3125,3125,3125,3141,3141,3141,3157,3173,3190,3190,3223,3223,3257,3275,3292,3310,3328,3346,3364,3383,3401,3420,3439,3439,3459,3459,3459,3478,3478,3478,3498,3498,3498,3518,3538,3600,3621,3686,3754,3848,3972,4104,4217,4305,4397,4494,4594,4700,4810,4886,4965,5046,5130,5217,5262,5262,5307,5262,5307,5262,5262,5217,5262,5262,5217,5217,5217,5217,5217,5217,5217,5173,5130,5088,5088,5046,5005,4925,4886,4848,4848,4810,4810,4772,4736,4700,4736,4700,4664,4629,4629,4629,4594,4594,4560,4594,4594,4629,4664,4700,4810,4886,5005,5088,5217,5262,5353,5448,5497,5546,5597,5597,5597,5597,5597,5648,5597,5597,5597,5546,5497,5497,5497,5497,5497,5546,5546,5546,5597,5546,5597,5597,5597,5546,5448,5448,5400,5400,5353,5307,5173,4925,4664,4397,4050,3777,3498,3292,3157,3109,3094,3094,3141,3223,0,0,0,0,4965,0,0,0,5130,5005,5046,4594,4810,4772,0,0,0,2688,2565,2544,2513,2513,2513,2503,2503,2492,2492,2492,2492,2492,2482,2482,2482,2482,2482,2482,2472,2472,2472,2472,2472,2472,2482,2492,2492,2503,2503,2503,0,0,0,0,0,0,0,0,0,3018,3078,3125,3141,3206,3275,3310,0,3665,3998,0,0,4810,5046,5262,5262,5262,5307,5307,5353,5353,5353,5400,5400,5448,5448,5448,5448,5307,5046,4848,0,4397,4275,4104,3921,3896,0,0,0,0,589,588,587,587,587,587,589,590,591,593,595,598,600,602,604,605,606,607,607,0,0,0,0,0,0,0,0,0,0,0,0,0,0,0,0,0,0,0,0,0,0,0,0,0,0,0,0,0,0,0,0,0,0,0,0,0,0,0,0,0,0,0,0,0,0,0,0,0,0,0,476,475,475,475,475,474,475,474,474,474,475,476,477,478,479,480,481,481,482,482,482,0,0,0,0,0,0,0,0,0,0,0,0,0,0,0,0,0,0,0,0,0,0,0,0,0,0,0,0,0,0,0,0,0,0,0,0,0,0,0,0,0,0,0,0,0,586,586,585,585,585,585,585,584,585,585,585,585,586,586,587,587,588,587,589,0,0,0,0,0,0,0,0,0,0,0,0,0,0,0,0,0,0,0,0,0,0,0,0,0,2272,2280,2280,2289,2280,2297,2306,2306,2314,2323,2323,2332,2332,2350,2359,2368,2377,2386,2395,2405,2414,2414,2414,2414,2405,2395,2395,2386,2377,2359,2350,2341,2332,2314,2306,2297,2289,2280,2272,2263,2263,2263,2263,2263,2263,2255,2255,2255,2255,2255,2247,2239,2231,2223,2215,2207,2199,2191,2183,2175,2160,2153,2153,2145,2145,2138,2138,2130,2123,2123,2123,2116,2116,2116,2108,2108,2101,2101,2101,2101,2108,2101,2108,2108,2108,2108,0,0,1140,1140,1138,1138,1138,1136,1136,1138,1136,1136,1134,0,0,0,0,0,0,0,1900,1906,1906,1912,1918,1930,1936,1936,1942,1948,1954,1954,1954,1954,1954,1954,1954,1954,1961,1973,1986,1999,2012,2019,2032,2045,2059,2059,2059,2059,2059,2059,2052,2039,2025,2012,1999,1986,1980,1980,1980,1980,1992,2005,2019,2032,2045,2045,2045,2039,2032,2025,2019,2005,1999,1986,1973,1967,1961,1961,1954,1954,1954,1954,1961,1961,1961,1961,1954,1961,1961,1954,1954,0,0,0,0,0,0,0,0,0,0,0,0,0,0,0,0,0,0,0,0,0
3109,3109,3109,3109,3109,3109,3109,3109,3125,3125,3125,3141,3141,3157,3173,3173,3190,3206,3223,3240,3257,3275,3292,3310,3328,3364,3364,3383,3401,3420,3439,3439,3459,3478,3478,3478,3498,3498,3498,3518,3518,3538,3559,3600,3643,3709,3777,3872,3972,4077,4188,4246,4366,4461,4560,4664,4772,4848,4925,5046,5130,5217,5307,5307,5307,5353,5353,5307,5307,5307,5307,5307,5262,5262,5262,5262,5262,5262,5262,5217,5173,5173,5173,5130,5130,5046,5005,5005,5005,4965,4925,4886,4848,4810,4810,4772,4736,4664,4664,4629,4629,4594,4560,4594,4594,4629,4664,4700,4736,4848,4925,5005,5088,5173,5217,5307,5353,5400,5448,5448,5497,5497,5448,5448,5448,5448,5448,5400,5400,5400,5353,5353,5400,5448,5497,5497,5497,5546,5546,5546,5597,5546,5448,5448,5400,5400,5353,5262,5173,4925,4700,4397,4050,3754,3518,3310,3141,3109,3094,3094,3141,3223,0,0,0,4461,0,0,5353,5173,4886,4772,4772,4217,4461,0,0,0,0,2587,2534,2513,2492,2492,2492,2492,2492,2482,2482,2482,2482,2482,2482,2482,2482,2482,2482,2482,2472,2472,2472,2472,2472,2472,2482,2492,2503,2503,2503,0,0,0,0,0,0,0,0,0,0,3048,3109,3141,3157,3206,3275,3292,0,3643,3972,0,0,4848,5088,5217,5262,5262,5307,5353,5353,5353,5400,5400,5448,5448,5497,5497,5497,5307,5046,4810,0,4366,4246,4077,3896,3896,3896,0,0,0,587,586,586,585,585,585,586,587,589,590,593,595,597,599,0,0,0,0,0,0,0,0,0,0,0,0,0,0,0,0,0,0,0,0,0,0,0,0,0,0,0,0,0,0,0,0,0,0,0,0,0,0,0,0,0,0,0,0,0,0,0,0,0,0,0,0,0,0,0,0,475,475,474,474,474,474,474,474,474,474,474,475,476,477,478,479,481,481,482,482,482,0,0,0,0,0,0,0,0,0,0,0,0,0,0,0,0,0,0,0,0,0,0,0,0,0,0,0,0,0,0,0,0,0,0,0,0,0,0,0,592,591,590,589,588,587,587,586,586,585,585,585,584,584,584,584,584,584,585,585,586,587,587,587,587,0,0,0,0,0,0,0,0,0,0,0,0,0,0,0,0,0,0,0,0,0,0,0,0,0,2272,2272,2280,2280,2280,2297,2297,2306,2306,2314,2323,2323,2332,2341,2350,2368,2377,2386,2395,2405,2414,2424,2414,2414,2405,2405,2395,2386,2368,2359,2350,2341,2323,2314,2306,2289,2280,2280,2263,2263,2255,2255,2255,2255,2255,2255,2255,2255,2255,2255,2247,2239,2231,2223,2215,2207,2199,2191,2183,2175,2168,2160,2153,2153,2145,2138,2138,2138,2130,2123,2123,2123,2116,2116,2108,2108,2101,2101,2101,2101,2101,2108,2101,2108,2108,2108,0,0,1140,1140,1138,1138,1138,1136,1138,1138,1138,1136,0,0,0,0,0,0,0,0,1906,1912,1912,1918,1924,1936,1942,1942,1948,1954,1954,1961,1954,1954,1954,1954,1954,1961,1967,1973,1986,1999,2012,2025,2032,2045,2052,2059,2059,2059,2059,2059,2052,2039,2025,2012,1999,1986,1980,1980,1980,1980,1992,1999,2012,2025,2039,2045,2045,2039,2032,2025,2012,2005,1999,1986,1973,1967,1961,1961,1961,1961,1954,1961,1961,1961,1961,1961,1961,1961,1967,1961,1961,0,0,0,0,0,0,0,0,0,0,0,0,0,0,0,0,0,0,0,0,0
3109,3109,3109,3109,3109,3109,3109,3125,3125,3141,3141,3157,3157,3173,3173,3190,3206,3223,3240,3257,3275,3292,3310,3328,3346,3364,3383,3401,3401,3420,3439,3459,3478,3478,3498,3498,3518,3518,3538,3538,3538,3579,3600,3643,3686,3731,3800,3896,3998,4077,4160,4246,4336,4461,4527,4664,4736,4810,4925,5046,5130,5217,5307,5353,5353,5353,5353,5353,5353,5353,5307,5307,5307,5307,5307,5307,5307,5307,5307,5262,5262,5217,5217,5217,5217,5173,5130,5130,5130,5088,5088,5046,5005,4925,4886,4848,4772,4736,4700,4629,4629,4594,4594,4594,4594,4629,4629,4664,4700,4772,4848,4925,5005,5046,5088,5173,5217,5217,5262,5307,5307,5307,5307,5307,5307,5307,5307,5307,5307,5307,5307,5307,5353,5353,5400,5448,5497,5497,5497,5546,5546,5497,5448,5448,5400,5400,5353,5262,5173,4886,4629,4336,3998,3731,3498,3292,3141,3094,3094,3109,3173,3275,0,0,0,0,0,0,0,4965,4629,4527,4429,0,3600,0,0,2677,2576,2534,2492,2492,2482,2482,2482,2482,2472,2472,2472,2472,2472,2482,2472,2482,2482,2482,2482,2482,2472,2472,2472,2472,2463,2472,2472,2492,2503,2513,0,0,0,0,0,0,0,0,0,0,0,0,3125,3157,3157,3206,3275,3328,0,3709,4024,0,4810,4886,5130,5262,5307,5307,5307,5353,5353,5400,5400,5400,5448,5448,5497,5497,5497,5353,5046,4810,0,4366,4217,4077,3896,3896,3896,3946,3972,587,586,585,585,584,584,584,584,585,586,588,590,593,595,0,0,600,600,0,0,0,0,0,0,0,0,0,0,0,0,0,0,0,0,0,0,0,0,0,0,0,0,0,0,0,0,0,0,0,0,0,0,0,0,0,0,0,0,0,0,0,0,0,0,0,0,0,0,0,0,0,474,474,474,474,474,474,474,473,473,474,474,475,476,477,478,479,480,481,482,482,482,0,0,0,0,0,0,0,0,0,557,557,0,0,558,557,556,555,554,0,0,0,0,0,0,0,0,0,0,0,0,0,0,0,0,0,0,594,593,593,593,592,591,590,590,589,587,587,586,585,585,584,584,583,583,584,584,584,584,585,586,586,587,586,587,0,0,0,0,0,0,0,0,0,0,0,0,0,0,0,0,0,0,0,0,0,0,0,0,0,2263,2272,2272,2280,2280,2289,2297,2297,2306,2314,2314,2323,2332,2341,2350,2368,2377,2386,2395,2405,2414,2424,2414,2414,2405,2395,2395,2386,2368,2359,2350,2341,2323,2314,2306,2289,2280,2272,2263,2255,2255,2247,2247,2247,2255,2247,2255,2255,2255,2255,2247,2239,2231,2223,2215,2207,2199,2191,2183,2175,2168,2160,2153,2153,2153,2145,2138,2138,2130,2130,2123,2123,2123,2116,2116,2108,2108,2101,2101,2101,2101,2108,2101,2101,2108,2101,0,0,0,1140,1140,1138,1138,1138,1138,1138,1138,0,0,0,0,0,0,0,0,0,1912,1918,1918,1930,1930,1942,1948,1948,1948,1954,1954,1961,1961,1961,1961,1961,1961,1961,1967,1980,1986,1999,2012,2025,2039,2045,2052,2059,2059,2059,2059,2059,2052,2045,2025,2012,1999,1986,1980,1980,1980,1980,1986,1999,2005,2019,2039,2039,2039,2032,2025,2019,2012,2005,1999,1980,1973,1967,1967,1961,1961,1961,1961,1961,1961,1961,1961,1961,1961,1967,1961,1961,1961,0,0,0,0,0,0,0,0,0,0,0,0,0,0,0,0,0,0,0,0,0
3109,3109,3109,3125,3125,3125,3141,3125,3141,3157,3157,3173,3173,3190,3206,3223,3223,3240,3257,3275,3310,3310,3328,3346,3364,3383,3401,3420,3439,3439,3459,3478,3498,3498,3518,3538,3559,3559,3579,3579,3600,3621,3643,3665,3709,3754,3824,3896,3972,4050,4132,4217,4305,4397,4494,4594,4700,4810,4925,5005,5130,5217,5307,5353,5400,5400,5448,5400,5400,5400,5400,5400,5400,5353,5353,5353,5353,5353,5353,5353,5353,5307,5307,5307,5262,5262,5262,5262,5262,5217,5173,5130,5088,5046,5005,4925,4848,4772,4736,4664,4629,4594,4560,4560,4560,4594,4594,4629,4664,4700,4772,4848,4886,4925,4965,5046,5046,5088,5088,5088,5130,5173,5173,5173,5173,5173,5173,5173,5173,5173,5173,5217,5262,5307,5353,5400,5400,5448,5448,5497,5497,5448,5448,5400,5353,5353,5307,5217,5088,4810,4527,4275,3946,3686,3439,3275,3125,3078,3063,3094,3141,3257,0,0,0,0,5088,5262,5088,4772,4429,4305,4024,0,3346,3094,2748,2598,2523,2503,2492,2482,2482,2472,2472,2472,2472,2463,2463,2472,2472,2472,2482,2482,2482,2482,2482,2482,2472,2463,2463,2463,2453,2463,0,0,0,0,0,0,0,0,0,0,0,0,0,0,0,3109,3141,3157,3157,3206,3292,3364,0,3754,4104,0,4886,4925,5130,5262,5307,5307,5353,5353,5400,5400,5400,5448,5448,5448,5497,5497,5546,5353,5046,4810,0,4366,4217,4077,3896,3896,3896,3946,3972,587,586,585,585,584,584,584,584,585,585,587,589,591,593,595,596,598,598,0,598,597,0,0,0,0,0,0,0,0,0,0,0,0,0,0,0,0,0,0,0,0,0,0,0,0,0,0,0,0,0,0,0,0,0,0,0,582,581,579,578,575,572,571,568,567,565,0,0,0,0,0,474,474,474,474,474,473,473,473,473,473,474,474,475,476,477,478,480,481,482,482,482,0,0,0,0,0,0,0,556,556,556,557,557,557,557,557,556,556,554,0,0,0,0,0,0,0,0,0,0,0,0,0,0,0,595,594,594,593,593,593,592,592,591,591,590,589,588,587,586,585,585,584,583,582,582,582,583,583,584,585,585,586,586,586,586,0,0,0,0,0,0,0,0,0,0,0,0,0,0,0,0,0,0,0,0,0,0,0,0,2255,2263,2263,2272,2272,2272,2289,2289,2297,2297,2306,2314,2323,2323,2332,2350,2368,2377,2386,2405,2405,2414,2424,2414,2414,2405,2405,2395,2386,2368,2359,2350,2341,2323,2314,2297,2289,2280,2272,2263,2255,2247,2247,2247,2247,2247,2247,2255,2255,2255,2255,2247,2247,2239,2231,2215,2207,2199,2191,2183,2175,2168,2160,2153,2153,2153,2145,2138,2138,2138,2130,2123,2123,2123,2116,2108,2108,2108,2101,2101,2101,2101,2101,2101,2101,2101,2101,0,0,0,0,1140,1140,1140,1138,1138,1140,0,0,0,0,0,0,0,0,1918,1918,1918,1918,1924,1930,1936,1942,1948,1948,1954,1954,1961,1961,1961,1961,1961,1961,1961,1967,1973,1980,1992,2005,2012,2025,2039,2045,2052,2059,2059,2059,2059,2059,2052,2045,2025,2012,1999,1986,1980,1980,1980,1980,1980,1992,2005,2019,2032,2039,2039,2032,2025,2019,2005,1999,1992,1986,1973,1967,1967,1967,1961,1961,1961,1954,1961,1961,1954,1954,1954,1961,1961,1954,1954,1954,0,0,0,0,0,0,0,0,0,0,0,0,0,0,0,0,0,0,0,0
3141,3141,3141,3157,3157,3157,3157,3173,3173,3190,3190,3206,3206,3223,3240,3257,3257,3275,3292,3310,3328,3346,3364,3383,3383,3401,3420,3420,3439,3478,3498,3518,3538,3559,3559,3579,3600,3621,3621,3643,3665,3665,3709,3731,3777,3800,3872,3921,3998,4077,4160,4217,4275,4397,4494,4594,4700,4810,4925,5046,5173,5262,5307,5400,5448,5497,5497,5497,5497,5497,5497,5497,5448,5448,5448,5400,5400,5400,5400,5400,5400,5400,5400,5400,5353,5353,5400,5353,5353,5353,5307,5262,5173,5130,5046,4965,4886,4848,4772,4700,4629,4594,4560,4560,4560,4560,4594,4594,4629,4664,4700,4736,4772,4810,4886,4886,4925,4965,4965,4965,4965,5005,5005,5046,5046,5046,5046,5046,5088,5088,5088,5130,5173,5217,5262,5307,5353,5353,5353,5400,5448,5400,5400,5353,5353,5262,5217,5173,5046,4736,4461,4188,3872,3621,3401,3223,3094,3063,3048,3063,3125,3257,0,0,4217,4629,5088,5173,4925,4629,4246,4024,0,3383,3157,2932,2631,2576,2523,2492,2482,2482,2463,2463,2463,2463,2463,2463,2463,2463,2463,2472,2472,2482,2472,2472,2472,2472,2472,2463,2463,2453,2453,0,0,0,0,0,0,0,0,0,0,0,0,0,0,0,0,0,3141,3157,3157,3206,3310,3401,0,3824,4160,4629,4925,4965,5173,5262,5307,5307,5353,5400,5400,5400,5448,5448,5497,5497,5497,5497,5546,5353,5046,4810,0,4366,4217,4050,3896,3896,3896,3946,3972,0,585,585,584,584,583,583,582,584,584,586,587,589,591,592,594,595,597,597,595,595,594,593,592,0,0,0,0,0,0,0,0,0,0,0,0,0,0,0,0,0,0,0,0,0,0,0,0,0,0,0,0,0,0,0,584,583,581,0,577,575,572,570,568,567,565,563,0,0,0,0,474,474,474,474,474,474,473,473,473,473,473,474,475,475,477,478,479,480,481,481,482,0,0,0,0,0,0,0,556,556,556,556,557,557,557,556,556,556,555,554,553,552,551,0,0,0,0,0,0,0,0,0,0,595,594,593,593,593,592,592,592,591,591,590,590,590,589,587,586,585,584,584,583,582,582,582,583,583,584,585,585,586,586,586,586,0,0,0,0,0,0,0,0,0,0,0,0,0,0,0,0,0,0,0,0,0,0,0,0,0,2263,2263,2263,2272,2272,2280,2289,2289,2297,2306,2306,2314,2323,2332,2350,2359,2377,2386,2395,2405,2414,2424,2414,2414,2414,2405,2395,2386,2377,2359,2350,2341,2323,2314,2297,2289,2280,2272,2263,2255,2247,2247,2247,2255,2247,2255,2255,2255,2255,2255,2255,2247,2239,2231,2223,2215,2207,2199,2183,2183,2175,2168,2160,2153,2153,2145,2138,2138,2138,2130,2123,2123,2123,2116,2108,2108,2108,2108,2101,2101,2101,2101,2108,2101,2101,2101,0,0,0,0,0,0,1142,1140,1140,0,0,0,0,0,0,0,0,1918,1924,1924,1924,1924,1930,1936,1942,1948,1948,1948,1954,1954,1961,1961,1967,1961,1961,1967,1967,1967,1973,1986,1992,2005,2019,2025,2039,2045,2052,2059,2059,2059,2059,2052,2052,2039,2025,2012,1999,1986,1980,1980,1980,1980,1980,1992,1999,2019,2032,2039,2032,2025,2025,2019,2012,2005,1999,1986,1980,1973,1973,1967,1967,1961,1961,1961,1961,1961,1954,1954,1954,1954,1954,1954,1954,0,0,0,0,0,0,0,0,0,0,0,0,0,0,0,0,0,0,0,0,0
3190,3190,3190,3190,3190,3190,3206,3190,3206,3223,3223,3240,3257,3257,3275,3275,3292,3310,3328,3346,3364,3383,3383,3401,3401,3420,3439,3459,3478,3498,3518,3559,3579,3600,3621,3643,3643,3665,3686,3709,3709,3754,3754,3800,3824,3872,3921,3972,4050,4132,4188,4246,4305,4397,4494,4594,4700,4810,4886,5005,5130,5217,5307,5353,5400,5448,5497,5497,5497,5497,5497,5497,5497,5497,5497,5448,5448,5448,5448,5448,5400,5400,5400,5400,5400,5448,5448,5448,5400,5400,5353,5307,5262,5217,5130,5005,4925,4848,4772,4700,4629,4594,4560,4560,4527,4560,4560,4594,4594,4629,4629,4700,4736,4736,4772,4810,4848,4848,4886,4886,4925,4925,4925,4925,4925,4925,4965,4965,4965,5005,5005,5046,5088,5130,5173,5217,5262,5307,5307,5353,5353,5353,5307,5307,5262,5217,5173,5088,4965,4664,4366,4077,3824,3579,3364,3206,3078,3048,3033,3078,3157,3310,0,0,4336,4700,5088,5130,4925,4560,4188,0,3538,3257,3018,2724,2598,2565,2513,2492,2482,2482,2463,2463,2463,2463,2463,2463,2463,2463,2472,2472,2472,2472,2472,2472,2472,2472,2463,2453,2453,0,0,0,0,0,0,0,0,0,0,0,0,0,0,0,0,0,0,0,3157,3173,3173,3190,3310,3420,0,3896,4246,0,4965,5005,5173,5307,5307,5307,5353,5400,5400,5400,5448,5448,5497,5497,5497,5497,5546,5353,5005,4772,0,4336,4188,4050,3896,3896,3896,3946,3972,0,585,584,584,583,583,582,582,583,584,585,586,587,588,589,590,592,593,593,592,591,590,590,590,588,0,0,0,0,0,0,0,0,0,0,0,0,0,0,0,0,847,854,859,866,871,0,0,0,0,0,0,0,0,0,584,582,580,579,577,574,573,571,568,567,565,564,562,0,0,0,475,474,474,474,474,474,473,473,473,473,473,474,474,475,476,477,478,479,480,481,481,0,0,0,0,0,0,555,555,555,555,556,556,557,557,556,556,556,555,554,553,553,553,552,0,0,0,0,0,0,0,0,594,594,593,591,591,590,591,590,591,590,590,590,590,590,589,587,586,585,585,584,583,582,582,582,583,584,584,585,585,586,586,586,586,0,0,0,0,0,0,0,0,0,0,0,0,0,0,0,0,0,0,0,0,0,0,0,0,0,2263,2263,2263,2272,2272,2280,2289,2289,2289,2297,2306,2314,2314,2332,2341,2359,2368,2386,2395,2405,2414,2424,2424,2414,2414,2405,2395,2386,2368,2359,2350,2341,2323,2314,2306,2289,2280,2272,2263,2255,2255,2255,2255,2255,2255,2255,2255,2255,2263,2263,2255,2247,2239,2239,2223,2215,2207,2199,2191,2183,2175,2168,2160,2153,2153,2145,2138,2138,2138,2130,2123,2123,2123,2116,2108,2108,2108,2108,2101,2101,2101,2101,2101,2094,2094,2094,2087,2080,2073,2066,2052,0,0,0,0,0,1986,1980,1967,1954,1942,1936,1930,1930,1930,1930,1930,1930,1936,1936,1942,1948,1948,1948,1954,1954,1961,1961,1967,1967,1967,1967,1967,1973,1980,1986,1999,2005,2019,2025,2039,2045,2052,2059,2059,2059,2052,2052,2045,2039,2025,2005,1992,1986,1980,1980,1980,1980,1980,1992,1999,2012,2025,2032,2032,2025,2019,2012,2005,2005,1999,1986,1980,1973,1973,1973,1967,1967,1967,1961,1961,1961,1954,1954,1954,1954,1954,1948,0,0,0,0,0,0,0,0,0,0,0,0,0,0,0,0,0,0,0,0,0,0
3223,3223,3223,3223,3223,3223,3223,3240,3240,3257,3257,3275,3292,3292,3310,3328,3328,3346,3364,3383,3383,3401,3420,3439,3439,3459,3478,3498,3498,3538,3559,3600,3621,3643,3686,3709,3731,3731,3754,3777,3800,3800,3848,3872,3896,3946,3998,4050,4104,4160,4217,4275,4336,4429,4494,4560,4664,4772,4848,4925,5046,5130,5217,5307,5353,5400,5448,5497,5497,5497,5497,5497,5497,5497,5448,5448,5448,5448,5448,5400,5400,5448,5448,5448,5448,5497,5497,5497,5497,5497,5448,5400,5307,5262,5173,5046,4965,4848,4772,4736,4664,4594,4560,4527,4527,4527,4560,4560,4594,4594,4629,4629,4664,4700,4736,4772,4772,4810,4848,4848,4848,4848,4886,4886,4886,4886,4886,4886,4886,4925,4925,4965,5005,5088,5130,5173,5217,5217,5262,5307,5307,5307,5262,5262,5217,5173,5130,5005,4925,4594,4275,4024,3777,3538,3346,3190,3048,3033,3018,3078,3206,0,0,3972,4397,4736,5046,5088,4810,4461,0,0,3420,3157,2932,2688,2598,2555,2523,2492,2482,2482,2472,2463,2463,2463,2463,2472,2472,2472,2472,2482,2472,2472,2472,2472,2472,2463,2453,2443,0,0,0,0,0,0,0,0,0,0,0,0,0,0,0,0,0,0,0,3141,3157,3173,3173,3190,3328,3478,0,0,4366,4810,5005,5046,5173,5307,5307,5307,5353,5400,5400,5400,5448,5448,5497,5448,5497,5497,5497,5307,5005,4772,0,4336,4188,4024,3896,3896,3921,3946,3972,585,584,584,584,583,582,582,582,583,584,584,585,586,587,589,590,591,592,592,591,590,589,587,587,586,0,0,0,0,0,0,0,0,0,0,0,0,0,0,0,0,0,0,842,850,856,0,867,0,0,0,0,0,586,0,584,582,0,578,576,574,572,570,568,566,565,563,562,0,0,0,475,475,474,474,474,474,473,473,472,472,472,473,474,475,0,0,478,478,479,479,480,0,0,0,0,0,555,555,554,555,555,555,555,556,556,556,556,555,555,555,554,554,553,553,553,0,0,0,0,0,0,593,593,593,592,591,590,590,590,590,590,590,590,590,590,590,590,589,587,586,585,584,583,582,582,582,583,584,584,585,585,586,586,586,586,0,0,0,0,0,0,0,0,0,0,0,0,0,0,0,0,0,0,0,0,0,0,0,0,2255,2255,2263,2263,2263,2272,2280,2280,2280,2289,2289,2297,2306,2314,2323,2341,2350,2359,2377,2395,2405,2414,2424,2414,2414,2414,2405,2395,2386,2377,2359,2350,2341,2323,2314,2306,2297,2289,2280,2272,2263,2263,2255,2255,2255,2255,2263,2255,2263,2263,2263,2255,2255,2247,2239,2231,2223,2207,2199,2191,2183,2175,2168,2160,2153,2153,2153,2138,2138,2138,2130,2123,2123,2123,2116,2108,2108,2108,2108,2101,2101,2101,2101,2101,2094,2101,2094,2087,2073,2066,2059,2052,2045,2032,0,0,1999,1992,1980,1973,1961,1954,1942,1936,1936,1936,1936,1936,1936,1936,1942,1942,1948,1948,1954,1954,1954,1961,1961,1967,1967,1967,1967,1973,1973,1980,1986,1999,2005,2019,2025,2032,2045,2045,2052,2052,2052,2052,2045,2045,2032,2025,2005,1992,1980,1980,1973,1973,1980,1980,1992,1999,2012,2025,2025,2025,2025,2019,2012,2005,1999,1992,1986,1980,1973,1973,1967,1967,1967,1961,1961,1954,1954,1954,1954,1954,1948,1948,1948,0,0,0,0,0,0,0,0,0,0,0,0,0,0,0,0,0,0,0,0,0,0
3275,3275,3275,3275,3275,3257,3275,3275,3292,3310,3310,3328,3328,3346,3346,3364,3383,3383,3401,3401,3420,3439,3459,3459,3478,3478,3498,3518,3538,3559,3600,3621,3665,3686,3731,3754,3777,3800,3824,3848,3872,3896,3896,3946,3972,4024,4077,4104,4160,4217,4246,4305,4336,4397,4461,4527,4594,4700,4772,4848,4965,5046,5130,5217,5262,5307,5400,5448,5448,5448,5448,5448,5448,5400,5400,5400,5353,5353,5353,5353,5353,5400,5400,5448,5448,5448,5448,5448,5448,5497,5448,5400,5353,5262,5173,5088,5005,4886,4772,4736,4664,4594,4560,4560,4527,4527,4527,4560,4560,4560,4594,4629,4629,4664,4700,4736,4736,4772,4810,4810,4810,4848,4848,4848,4848,4848,4848,4848,4886,4886,4886,4925,5005,5005,5046,5130,5173,5173,5217,5262,5262,5262,5217,5173,5130,5088,5046,4965,4848,4527,4217,3946,3709,3498,3310,3157,3033,3018,3018,3094,3223,3420,0,0,0,0,4965,5005,4736,0,0,0,3346,3094,2890,2688,2598,2555,2523,2492,2482,2482,2472,2472,2463,2472,2472,2472,2472,2472,2472,2472,2472,2472,2463,2463,2463,2453,2443,0,0,0,0,0,0,0,0,0,0,0,0,0,0,0,0,0,0,0,0,3157,3173,3173,3173,3190,3328,3518,0,0,4429,4925,5088,5130,5173,5262,5307,5353,5353,5400,5400,5400,5400,5448,5448,5448,5448,5497,5497,5353,5046,4810,0,4366,4217,4077,3896,3896,3896,3946,3972,585,584,584,584,584,582,582,582,583,584,584,585,586,587,588,589,590,591,591,590,589,588,586,586,584,0,0,0,0,0,0,0,0,0,0,0,0,0,0,0,0,0,0,0,0,0,0,0,0,0,0,0,586,585,584,583,581,579,577,576,573,572,570,568,566,564,563,562,0,0,0,476,475,475,475,474,474,473,473,472,472,472,473,473,474,0,0,477,477,478,479,479,0,0,0,0,0,554,554,554,555,554,555,555,555,556,556,555,555,555,554,555,555,555,555,556,558,564,0,0,0,589,591,592,592,591,590,589,589,589,589,590,590,590,590,590,590,590,589,588,587,586,585,583,583,582,582,583,583,584,585,585,586,586,586,586,0,0,0,0,0,0,0,0,0,0,0,0,0,0,0,0,0,0,0,0,0,0,0,0,0,0,2263,2263,2272,2272,2280,2280,2280,2289,2289,2297,2306,2306,2314,2332,2350,2359,2368,2386,2395,2405,2414,2414,2414,2414,2405,2395,2386,2377,2368,2350,2341,2323,2314,2306,2297,2289,2280,2272,2272,2263,2263,2263,2263,2263,2263,2263,2263,2263,2263,2263,2255,2247,2239,2231,2223,2207,2199,2191,2183,2175,2168,2160,2153,2153,2153,2145,2138,2138,2130,2123,2123,2123,2116,2108,2108,2108,2101,2101,2101,2101,2094,2094,2094,2087,2087,2080,2073,2066,2059,2045,2039,2032,2025,2012,2005,1992,1986,1980,1973,1961,1948,1948,1948,1942,1942,1942,1942,1942,1948,1948,1948,1954,1954,1954,1961,1961,1961,1967,1967,1967,1967,1973,1973,1980,1986,1999,2005,2012,2025,2032,2039,2045,2052,2045,2045,2045,2039,2039,2032,2019,1999,1986,1980,1973,1973,1973,1973,1980,1992,1999,2012,2025,2025,2025,2025,2019,2005,1999,1999,1992,1980,1973,1967,1967,1967,1961,1961,1961,1954,1954,1954,1948,1948,1942,1942,1942,1942,1942,0,0,0,0,0,0,0,0,0,0,0,0,0,0,0,0,0,0,0,0,0
3292,3292,3292,3292,3310,3292,3310,3310,3328,3328,3346,3364,3364,3383,3383,3401,3401,3420,3439,3439,3459,3459,3478,3478,3498,3498,3518,3538,3559,3579,3621,3665,3686,3731,3754,3800,3824,3848,3872,3896,3921,3946,3972,3998,4024,4077,4104,4160,4188,4217,4246,4305,4336,4366,4429,4461,4527,4594,4664,4736,4810,4925,5005,5088,5173,5217,5307,5353,5400,5400,5400,5353,5353,5307,5307,5307,5262,5262,5262,5262,5307,5307,5353,5353,5353,5400,5400,5448,5448,5448,5448,5400,5353,5262,5173,5088,5005,4886,4772,4736,4664,4629,4560,4560,4560,4560,4560,4560,4560,4560,4594,4594,4629,4629,4664,4700,4736,4736,4772,4772,4810,4810,4848,4810,4848,4848,4810,4848,4848,4886,4886,4925,4965,4965,5046,5088,5130,5130,5173,5217,5217,5217,5173,5130,5088,5046,4965,4886,4772,4461,4132,3896,0,3459,3292,3141,3018,3003,3018,3109,3257,3439,0,0,0,4772,4925,4965,4664,4275,3946,0,3310,3063,2863,2677,2598,2555,2523,2503,2482,2482,2472,2472,2472,2472,2472,2472,2472,2472,2472,2472,2463,2463,2463,2453,2453,2453,0,0,0,0,0,0,0,0,0,0,0,0,0,0,0,0,0,0,0,0,0,3157,3173,3173,3173,3190,3364,0,0,0,4527,4965,5130,5130,5173,5262,5307,5353,5353,5400,5400,5400,5400,5448,5448,5448,5448,5448,5448,5307,5088,4848,0,4429,4275,4132,3946,3896,3921,3946,0,585,584,583,583,583,583,583,582,583,584,584,585,586,586,587,587,589,589,590,589,587,586,585,584,582,580,577,0,0,0,0,0,0,0,0,0,0,0,0,802,805,807,809,813,819,0,0,0,0,0,0,586,585,584,582,582,580,578,576,575,573,571,570,567,565,564,563,562,560,0,0,476,475,475,475,474,474,473,473,472,472,472,472,473,473,474,475,475,476,477,477,0,0,0,0,0,0,0,553,553,553,553,554,554,555,555,555,555,555,555,555,555,555,555,556,557,560,567,0,0,0,589,591,0,591,590,589,588,588,588,589,589,589,590,590,590,591,590,589,588,587,586,585,583,582,582,582,582,583,584,584,585,585,586,585,586,0,0,0,0,0,0,0,0,0,0,0,0,0,0,0,0,0,0,0,0,0,0,0,0,0,2263,2263,2263,2272,2272,2280,2280,2280,2280,2289,2289,2297,2306,2314,2323,2341,2350,2359,2377,2395,2405,2414,2414,2414,2414,2405,2395,2386,2377,2368,2359,2341,2332,2323,2314,2297,2297,2289,2280,2272,2272,2263,2263,2272,2272,2272,2263,2263,2272,2263,2263,2255,2255,2247,2231,2223,2215,2207,2191,2191,2175,2168,2160,2153,2153,2153,2145,2138,2138,2130,2123,2123,2123,2116,2108,2108,2108,2101,2101,2101,2094,2094,2094,2087,2087,2087,2080,2066,2059,2052,2045,2039,2032,2025,2019,2005,1999,1992,1986,1980,1967,1954,1954,1954,1954,1948,1948,1948,1948,1948,1954,1948,1948,1954,1954,1961,1961,1961,1967,1967,1967,1967,1973,1973,1980,1986,1999,2005,2012,2019,2025,2032,2039,2045,2045,2045,2039,2039,2032,2025,2012,1999,1986,1973,1973,1973,1973,1973,1980,1992,1999,2012,2025,2032,2025,2025,2012,2005,1999,1999,1992,1980,1973,1967,1967,1967,1967,1961,1961,1954,1954,1948,1948,1942,1942,1942,1936,1936,0,0,0,0,0,0,0,0,0,0,0,0,0,0,0,0,0,0,0,0,0,0
3310,3310,3310,3310,3310,3310,3328,3328,3346,3364,3383,3383,3401,3401,3420,3439,3439,3459,3459,3478,3478,3478,3498,3498,3498,3518,3538,3559,3559,3600,3621,3665,3709,3731,3777,3800,3848,3872,3896,3946,3972,3998,4024,4050,4077,4104,4132,4160,4188,4217,4217,4246,4275,4305,4336,4397,4429,4494,4527,4594,4700,4772,4848,4965,5046,5088,5173,5262,5307,5262,5262,5262,5262,5262,5262,5217,5217,5217,5217,5217,5217,5262,5307,5307,5307,5353,5353,5400,5448,5448,5448,5400,5353,5262,5173,5088,4965,4886,4810,4736,4664,4629,4594,4560,4560,4560,4560,4560,4560,4560,4594,4594,4629,4629,4664,4700,4700,4736,4772,4772,4772,4810,4810,4810,4810,4810,4810,4810,4848,4848,4886,4886,4925,4965,5005,5046,5088,5088,5130,5173,5173,5130,5130,5088,5005,4965,4925,4810,4700,4366,4050,3824,0,3420,3257,3125,3003,3003,3018,3109,0,0,0,4050,4429,4700,4848,4886,4594,4246,3896,3559,0,3033,2837,2677,2598,2555,2513,2503,2492,2492,2482,2482,2472,2482,2482,2482,2482,2482,2472,2472,2472,2472,2463,2453,2453,0,0,0,0,0,0,0,0,0,5700,5648,0,5597,0,0,0,0,0,0,0,0,0,3173,3190,3190,3190,3190,3383,0,0,0,4629,5046,5130,5173,5217,5262,5307,5353,5353,5353,5400,5400,5400,5400,5448,5448,5448,5448,5448,5307,5130,4925,0,4527,4366,4188,3998,3921,3921,3921,0,584,584,583,583,583,583,582,582,583,584,584,585,586,586,587,587,588,589,588,587,586,585,583,582,580,578,0,0,0,0,0,0,0,0,0,0,0,0,0,794,796,798,800,802,805,809,0,0,0,0,0,585,584,582,581,580,579,577,576,574,573,571,569,567,566,565,563,562,0,0,0,476,475,475,475,474,474,473,473,472,472,472,472,472,472,473,474,474,475,475,476,0,0,0,0,0,0,0,553,552,553,553,553,554,554,554,554,555,555,555,555,555,556,556,558,560,563,568,574,0,0,587,0,0,590,589,587,586,586,586,587,589,589,589,590,590,590,590,589,587,587,586,584,583,582,582,581,582,582,583,584,584,585,585,585,585,0,0,0,0,0,0,0,0,0,0,0,0,0,0,0,0,0,0,0,0,0,0,0,0,0,2263,2263,2263,2272,2272,2272,2280,2280,2280,2289,2289,2297,2297,2306,2323,2332,2350,2359,2368,2386,2395,2414,2414,2414,2414,2405,2405,2395,2377,2368,2359,2350,2332,2323,2314,2306,2297,2297,2289,2280,2280,2280,2280,2280,2280,2272,2272,2272,2272,2272,2263,2263,2255,2247,2231,2223,2215,2207,2199,2191,2175,2168,2160,2160,2153,2153,2145,2138,2138,2130,2123,2123,2116,2116,2108,2108,2101,2101,2101,2094,2094,2087,2087,2087,2080,2080,2073,2066,2059,2052,2045,2039,2032,2032,2019,2012,1999,1999,1992,1986,1973,1967,1967,1961,1961,1961,1961,1961,1954,1954,1954,1954,1954,1954,1954,1954,1961,1961,1961,1961,1967,1967,1973,1973,1980,1986,1992,2005,2012,2019,2025,2032,2039,2039,2045,2039,2039,2032,2032,2025,2005,1992,1980,1973,1967,1967,1967,1973,1980,1992,1999,2012,2025,2032,2025,2025,2012,2005,1999,1992,1992,1980,1973,1967,1967,1967,1961,1961,1961,1954,1948,1942,1942,1942,1936,1936,1930,1930,0,0,0,0,0,0,0,0,0,0,0,0,0,0,0,0,0,0,0,0,0,0
3310,3310,3310,3310,3328,3328,3328,3346,3364,3383,3383,3401,3420,3420,3439,3459,3459,3478,3478,3478,3498,3498,3498,3518,3518,3518,3538,3559,3579,3600,3621,3665,3709,3754,3777,3824,3872,3896,3921,3972,3972,3998,4024,4050,4077,4077,4104,4132,4132,4160,4160,4160,4188,4217,4246,4275,4305,4366,4397,4429,4527,4629,4700,4810,4886,4965,5046,5130,5173,5173,5217,5217,5217,5217,5173,5173,5173,5173,5173,5173,5173,5173,5217,5262,5262,5307,5307,5353,5400,5400,5400,5353,5307,5217,5130,5046,4965,4848,4772,4700,4664,4594,4594,4560,4560,4560,4560,4560,4560,4560,4594,4594,4629,4629,4629,4664,4700,4700,4736,4772,4772,4772,4810,4810,4810,4810,4810,4810,4810,4848,4848,4886,4925,4925,4965,5005,5046,5046,5088,5088,5088,5088,5046,5005,4965,4886,4848,4736,4594,4275,3998,3777,0,3401,3240,3109,3003,3003,3033,3141,0,3478,0,3998,4336,4594,4736,4810,4594,4275,3946,3621,3310,3048,2837,2677,2587,2565,2513,2503,2492,2492,2482,2482,2482,2482,2482,2482,2482,2482,2482,2472,2472,2472,2463,2463,2463,0,0,0,0,0,0,0,0,0,5700,5648,5648,5497,5448,0,0,0,0,0,0,0,0,3173,3190,3190,3190,3190,3401,0,0,0,4700,5088,5173,5173,5217,5262,5307,5307,5353,5353,5353,5400,5400,5400,5400,5400,5448,5448,5448,5353,5130,4965,0,0,4461,4246,4050,3921,0,0,0,0,584,582,583,583,583,582,582,584,584,585,585,585,586,586,587,587,587,587,586,585,584,582,581,579,577,574,0,0,0,0,0,0,0,0,0,0,0,0,790,791,792,792,793,794,795,797,0,0,0,0,582,581,580,580,579,578,576,574,573,572,570,568,567,565,564,563,562,560,559,0,476,475,475,475,474,474,473,473,472,472,471,471,472,472,472,473,473,474,474,475,475,0,0,0,0,0,0,552,552,553,553,553,553,553,554,554,554,555,555,555,556,558,558,560,563,566,0,0,0,585,587,0,589,589,587,586,585,585,585,586,587,587,587,589,589,589,589,588,587,586,585,584,582,582,581,581,581,582,582,583,584,584,584,585,585,0,0,0,0,0,0,0,0,0,0,0,0,0,0,0,0,0,0,0,0,0,0,0,0,0,0,2263,2263,2272,2272,2272,2272,2280,2280,2280,2289,2289,2297,2306,2314,2323,2341,2350,2368,2377,2395,2405,2414,2414,2414,2414,2405,2395,2377,2368,2359,2350,2332,2323,2323,2314,2306,2306,2297,2289,2289,2289,2289,2289,2289,2280,2280,2280,2280,2272,2272,2263,2255,2247,2239,2231,2215,2207,2199,2191,2183,2168,2168,2160,2153,2153,2145,2138,2138,2130,2123,2123,2116,2116,2108,2108,2101,2101,2101,2094,2094,2087,2080,2080,2080,2073,2066,2059,2052,2052,2045,2039,2039,2032,2025,2019,2012,2005,1999,1992,1986,1986,1980,1973,1973,1973,1967,1967,1961,1961,1961,1954,1954,1954,1954,1954,1954,1961,1961,1961,1961,1967,1967,1967,1973,1980,1992,1999,2005,2012,2019,2025,2032,2039,2039,2039,2032,2032,2025,2019,2005,1992,1980,1967,1961,1961,1967,1973,1980,1992,2005,2012,2025,2032,2032,2025,2012,2005,1999,1999,1992,1980,1980,1973,1967,1967,1967,1961,1961,1954,1948,1942,1936,1936,1930,1930,1924,1924,0,0,0,0,0,0,0,0,0,0,0,0,0,0,0,0,0,0,0,0,0,0
